2.8707566,0.77925193,2.199958,162,162,163
3.047341,0.49712276,2.2086632,148,142,144
2.9920273,0.9014566,2.1912193,150,151,155
2.8751767,1.0727209,2.1855326,72,71,75
2.8006015,0.111894846,2.230888,136,133,135
2.971253,1.2971649,2.1670382,105,105,111
2.7270215,0.73866713,2.2096286,125,126,128
2.1864538,1.3090117,3.202767,243,203,168
2.1180792,1.6450891,2.399467,74,58,52
2.109542,1.3105417,2.6597564,204,163,128
1.6380914,1.9740855,2.1717448,141,143,147
2.1554801,1.6018473,2.5125284,79,62,53
2.2527008,1.4721785,3.13473,80,69,67
2.53929,1.3143375,2.194945,156,154,158
2.150404,1.6755008,2.738781,88,67,57
2.4833589,2.0301957,2.1658223,121,123,130
2.001122,1.5460186,3.2786982,250,211,188
0.9434523,2.3215911,2.1985826,28,45,71
2.0640745,1.0472546,2.2288823,164,161,163
2.3227224,1.6600626,2.176177,130,127,129
2.5877032,1.0109751,2.2092404,184,182,186
2.3869743,1.6143796,2.1765008,166,167,168
2.4074104,2.192308,2.146284,10,26,52
2.1395962,1.5915515,2.3567314,93,76,67
2.4699688,2.2180243,2.142992,22,39,64
2.1997023,1.7750033,3.1682422,194,173,164
2.7224407,1.1742096,2.1889682,114,111,109
2.0291176,1.8005259,3.0908046,126,107,99
2.2158928,1.3333222,3.1689577,198,187,185
2.4881861,1.7525352,2.1653085,142,142,143
0.60434806,2.213268,2.2329392,39,53,80
2.1387362,1.7120879,2.809587,95,74,62
2.4158125,2.2572944,2.1263611,23,40,68
2.2053976,1.5842355,2.8292975,96,85,84
1.7591803,1.8758816,3.1847632,105,100,112
2.7004204,1.3452731,2.1822987,214,211,213
2.5640402,1.9228867,2.1436121,136,137,140
0.67076164,1.6782408,2.2746143,41,54,79
2.2047796,1.7677228,3.1696045,57,61,64
2.1141825,1.9468603,2.1677322,59,72,98
3.0476341,1.5352212,2.145907,161,161,168
2.2027717,1.7114105,2.965529,80,62,55
1.9160669,1.8651706,3.1405468,102,86,80
2.706467,0.831523,2.197365,172,170,175
2.151958,1.7804289,3.1838598,85,77,81
2.3387043,2.2300823,2.1464567,16,32,57
1.6324463,2.1123185,2.1840029,180,177,179
2.4093857,1.1576726,2.1992173,100,97,96
2.1441407,1.7324892,3.1927755,250,244,243
2.313243,1.8650416,2.1605659,31,43,63
2.1500704,1.6835304,2.6929457,86,70,64
2.1516013,1.682572,2.5771756,95,81,73
2.0103478,1.7780399,2.8032112,86,70,64
2.1946797,1.9032028,2.1635537,27,42,64
2.037024,1.7413743,3.226188,231,221,214
2.4213514,2.2878582,2.1224468,18,34,58
2.3983684,1.6133085,2.168986,166,167,168
2.3694088,0.98412716,2.2116177,159,158,161
2.5596914,1.6464276,2.1597373,137,139,142
2.509893,2.0416229,2.145874,121,123,129
1.5831205,2.4365544,2.180193,197,190,190
1.8768382,1.8691208,3.1532764,170,170,178
2.3009017,1.6336669,2.162592,178,178,179
2.5508091,1.9698411,2.150065,119,119,126
1.4944723,2.2152224,2.1937199,195,194,195
1.6557006,1.5551304,2.2154002,2,8,23
1.7906123,1.8440373,2.8877592,85,70,65
1.9166828,1.808643,2.1905217,9,20,38
1.9603634,1.8546023,2.1898665,47,60,83
2.0584755,2.0431695,2.1706758,28,41,66
1.8339394,1.8866274,3.182929,113,97,88
1.6919411,2.126975,2.1885989,120,120,122
1.5173665,2.0792525,2.1980271,155,156,157
1.4046181,1.7369833,2.2276285,130,129,129
1.2652088,1.7285101,2.2369108,201,202,204
1.0543703,1.9779739,2.239637,119,120,130
1.1245273,0.9465216,2.2903411,178,173,174
2.4209208,2.0348442,2.1428237,152,154,162
1.9156117,1.7358899,3.2365189,216,188,183
1.7680148,1.6616334,3.265129,69,68,73
1.6375921,1.610973,3.0428705,56,49,50
1.4001111,1.7559779,2.230359,169,170,173
1.2711403,1.6738894,2.246038,121,120,124
0.9463241,1.6724505,2.2709155,153,153,160
1.2140143,1.4615518,2.2659893,136,138,142
1.6005992,1.3100799,2.3193412,29,38,54
1.243999,1.4629018,2.2577305,247,248,250
1.0906105,1.7178624,2.252882,86,86,91
1.1641451,1.7527714,2.2533915,179,179,185
1.5857301,2.1115444,2.1920094,147,149,153
1.194618,1.5027869,2.265103,124,126,130
1.6968005,1.7971194,3.0193002,50,43,44
1.6385244,1.6437633,2.8451948,58,47,46
1.2774949,1.1554236,2.2910633,135,134,138
1.5827929,1.9084032,2.2033572,150,148,151
1.4122229,1.4308364,2.2580552,115,113,114
2.1355915,2.4703052,2.1248899,34,47,73
1.253056,1.739508,2.2542446,80,83,92
1.7261018,1.0322933,2.266609,122,124,130
1.646119,1.6386957,2.421311,61,54,53
2.1207495,2.8257034,2.0919924,68,81,106
1.6743752,1.3634378,3.258493,210,158,118
1.55914,1.4872415,3.266369,23,0,0
2.186706,2.5503705,2.111679,33,46,71
1.7139785,1.325914,2.775012,230,182,137
1.267452,1.5573999,2.259541,109,109,112
1.0088851,1.6480627,2.2788801,18,32,52
1.0589204,2.2765422,2.2125669,12,29,54
1.9039391,1.2660365,2.6510246,216,168,125
1.5527235,1.2784045,2.2800617,92,105,123
1.9778622,0.6499218,2.3015532,73,75,81
1.9016739,1.2776982,2.9128385,255,252,254
1.5776337,1.4131907,2.555588,99,82,71
1.3521533,1.7860886,2.2389379,51,58,75
1.7839596,0.9197343,2.2678447,109,111,117
1.6319727,1.3693562,2.924942,177,132,94
1.043195,1.4928217,2.2917218,4,16,39
1.6540941,0.8374988,2.2887745,242,242,242
1.7960722,1.3145015,3.2665348,202,153,115
1.6953937,1.313101,2.420434,97,101,109
1.7412385,1.3249211,3.2500153,160,118,88
1.6922064,1.3511462,3.138868,210,160,118
1.4740855,1.276083,2.2727122,130,128,129
1.6025339,1.3367826,2.477225,7,4,6
1.4305799,1.1119287,2.2875328,81,83,89
0.62926877,1.8246665,2.2663965,16,31,54
1.6030958,2.2267616,2.191142,136,139,145
1.6487321,1.8102287,2.2302513,195,190,186
1.6477243,1.7282209,3.097209,44,37,38
1.218821,1.4384803,2.275312,128,131,139
1.6881231,1.816919,3.2441876,94,66,53
1.3710098,1.6913006,2.2479885,83,87,95
1.2739944,1.8010595,2.2466233,76,81,91
1.2346461,1.9246258,2.2364783,255,254,255
1.7391378,2.6027708,2.1459067,98,99,108
1.9121164,2.6258965,2.1298509,106,109,118
1.2758086,2.2213972,2.2191947,166,167,176
4.3276777,3.6088185,1.685662,219,213,208
2.4109929,2.767412,2.0749876,90,106,136
1.9192411,2.6850004,2.1335795,119,120,134
1.2078805,2.3338518,2.1974592,70,87,112
1.687309,2.2637928,2.1756926,103,108,113
2.4669583,2.1548333,2.1269207,126,130,142
1.6150188,2.3183656,2.180717,137,135,138
1.3386765,1.6074364,2.2446315,152,156,164
1.6577833,1.6879495,2.8931146,67,58,58
1.4901415,1.8114873,2.2229676,160,159,164
1.4883215,1.8858422,2.2252498,176,170,174
1.9047722,1.8060912,2.8253298,115,103,100
2.279035,1.570953,2.1844876,135,136,140
1.9895377,1.7754066,2.7743702,121,106,102
1.884122,1.9411312,2.1932821,29,42,67
2.3199706,1.7911788,2.1635637,120,122,125
2.084663,2.3466496,2.1627412,23,40,67
2.5804517,2.000169,2.140311,147,146,153
2.323086,1.4999726,2.1871939,255,253,253
1.7828193,1.7752855,2.459023,80,65,61
1.3658315,1.7340661,2.2338805,241,239,244
2.0932932,2.0706108,2.1703587,51,64,89
1.8111088,1.8441843,3.0555284,92,72,64
2.6725757,1.7220138,2.1545568,177,177,186
1.9351289,1.8582104,3.190923,81,80,96
1.3021756,1.8286599,2.2287374,219,217,219
1.9094805,1.7924191,2.8100677,87,67,57
2.340882,2.144117,2.1507115,29,47,76
1.834679,1.78919,2.615564,87,68,60
2.2719784,1.9051874,2.171918,19,37,60
1.3841192,1.3927122,2.250096,139,134,131
2.0234158,2.0385993,2.173335,30,47,72
2.31993,1.7357637,3.1560423,132,104,95
1.8140125,1.811115,2.4268036,45,61,85
2.275319,1.3952423,2.1956465,181,181,181
1.8347477,1.6990036,3.2736259,96,91,96
2.1772904,1.7192881,3.2025537,233,215,196
1.4234864,1.8253158,2.2340255,179,179,180
2.046054,1.7620907,2.8403716,89,73,68
2.5143147,1.588556,2.1821487,130,132,138
1.9668424,1.7468585,3.232201,227,211,195
2.2020292,1.3822559,2.2105079,215,212,212
1.8631,1.8482012,3.10913,86,69,61
2.1514988,1.7721814,3.1940942,94,87,95
2.3904934,1.106633,2.2092223,251,245,246
1.8784664,1.6011434,3.278512,215,178,150
2.303768,1.5920125,3.1281145,105,95,96
1.9702294,1.716086,3.2398808,213,177,146
2.2224808,1.4972128,3.222639,255,254,255
1.9330493,1.789241,2.8202167,106,90,84
2.475473,1.6003476,2.188583,243,244,245
1.9833789,1.6478546,3.2770412,230,212,201
2.0965958,1.0296347,2.233348,221,219,221
2.0582194,1.5981793,3.2789774,215,174,139
2.1429424,0.7841198,2.2515373,255,252,255
2.2291071,1.5637785,3.040625,91,77,70
2.1470923,2.008965,2.1677728,32,48,73
2.1032887,1.179392,2.2191386,189,188,189
2.2060316,1.6987563,2.9498208,92,70,58
1.777891,0.7312621,2.2690935,210,206,206
2.2203417,1.5000262,3.2168543,229,193,162
2.0671878,2.1739256,2.1646466,33,47,75
2.510094,1.5291137,2.1888108,146,145,150
2.3116777,2.0859828,2.1541357,27,45,74
2.1932473,1.4066,3.0782938,87,73,66
2.471513,1.8955547,2.1609716,116,120,128
1.9522897,1.0353239,2.241702,198,195,197
2.0961323,1.409359,3.2437577,229,186,152
2.1684294,1.482329,3.2296104,223,177,143
2.2016053,1.6075733,2.8381608,84,66,61
2.356919,0.8673056,2.2094574,138,139,141
2.3210196,0.99601024,2.230764,139,140,143
2.2036924,1.2705089,3.1420856,80,72,70
2.22218,1.286614,3.172067,150,116,96
2.0124238,2.2249057,2.1470408,18,36,66
1.9696659,0.86246073,2.260228,152,148,149
1.9882078,1.4116249,3.2856402,250,203,152
0.6907364,1.2346582,2.3079152,198,190,193
0.82914543,1.5771322,2.2770362,87,90,98
1.833139,0.891791,2.2651935,125,125,127
2.2867665,2.051329,2.1501443,16,35,61
-0.96017075,3.1590233,2.4581592,119,160,231
1.8033928,0.8707707,2.2717197,176,176,179
2.0101032,1.5733964,3.277172,189,156,148
1.6501367,1.0161141,2.2754974,105,102,104
2.1313171,1.3105588,3.2386699,200,158,137
1.6226941,1.5605937,3.2636878,180,153,151
2.4654455,1.4659905,2.1920931,99,103,110
1.8423027,1.2657268,2.7968466,214,166,123
1.1766534,1.2357547,2.292389,109,108,112
2.006212,0.89691246,2.2627072,73,75,79
1.4320526,0.86412096,2.3000379,75,76,80
1.9185792,1.2581068,2.8070397,212,164,121
-0.17705175,3.8099024,2.3350182,91,123,182
1.8960189,1.2686265,3.1019163,210,166,128
-0.31819367,4.3695674,2.441204,110,154,224
2.0670333,1.2647437,2.8784456,164,122,91
1.0952125,2.4924097,2.2193596,21,39,68
0.37573752,1.9008275,2.2809172,18,34,60
1.8021615,1.2953663,3.1589642,203,155,112
1.4308212,1.1874777,2.2799182,106,105,104
1.1380936,0.80821234,2.316741,172,169,171
1.8484659,1.2681818,2.9532037,221,210,200
1.229219,1.5475335,2.2617993,140,140,145
1.6179117,0.26267302,2.3235433,105,104,108
2.1493587,0.57229507,2.2720304,89,89,96
0.7469996,0.77233255,2.3428388,52,50,52
1.3334508,0.6748363,2.3097847,94,92,95
1.9562328,0.5529753,2.2833667,53,50,58
0.6886579,-0.049268365,2.4029975,185,189,192
0.5700327,0.24267626,2.3897154,95,95,100
1.7615913,0.39551783,2.313526,35,32,34
1.5699077,-0.18391836,2.3646889,190,188,190
0.96534747,0.44534612,2.346766,91,93,99
1.5765011,0.004516959,2.3466458,82,81,85
0.92364895,-0.40810895,2.40878,5,20,42
0.820064,-0.95756793,2.4565182,176,171,174
0.69688916,-0.031820536,2.3944328,140,140,145
1.3329688,-0.4134345,2.3910356,135,136,139
1.3468065,0.06655383,2.3584452,109,108,113
1.2267184,-0.58369875,2.404512,183,185,187
1.140235,-0.08015704,2.3804936,218,217,224
0.82757086,-0.7653291,2.5063462,117,0,10
0.9214111,-0.045336843,2.389538,155,155,162
0.6982296,-0.56875086,2.428336,18,29,50
1.3384906,-0.9145131,2.4240499,168,165,167
-0.1491428,-0.17809331,2.4598155,31,45,71
1.4059378,-0.5605848,2.4025617,102,102,107
0.3629711,-1.2873664,2.4939313,146,141,139
1.2783298,-0.31913185,2.3904939,141,143,149
0.7652862,-0.7563224,2.645065,39,36,48
0.8257875,-1.2557194,2.475137,185,179,182
0.012305558,-0.29007888,2.4535785,113,116,123
0.864384,-0.7581508,2.4423883,12,24,43
0.16453837,-1.2905295,2.5021489,140,135,133
-0.1431225,0.008351207,2.4524727,24,38,64
-1.1661972,-0.2762835,2.5082998,16,30,56
-1.129309,-0.81032634,2.535913,24,38,65
-0.5394761,-1.3630655,2.5298011,66,83,111
-0.11266196,0.0849036,2.4455237,27,44,71
0.7662079,-0.6571202,2.6385932,123,119,124
0.28732052,-0.99044514,2.47583,21,34,59
0.4643283,-1.4544914,2.5072846,227,224,226
1.116893,-0.8574009,2.4379306,124,126,132
-0.40537935,-0.6512022,2.5008397,23,40,67
-0.13327059,-1.2630119,2.521319,35,49,75
0.35310912,-0.4204781,2.4419582,157,154,157
-0.59479916,-0.35402274,2.493217,73,87,116
0.70922124,-0.32683635,2.4122741,138,137,144
0.947742,-1.2292061,2.4737375,199,198,196
-0.8825064,-0.23725629,2.505468,25,40,70
0.88421005,-1.0431774,2.469479,157,153,153
-0.4544201,-0.32540727,2.4923754,45,62,90
0.73100644,-0.8708801,2.6462913,54,31,35
0.25379717,-1.0495572,2.4982069,25,38,61
0.2776364,-0.05345249,2.4283879,210,200,198
-0.19810471,-0.8606851,2.5081885,19,37,68
0.4889812,-1.0056021,2.4798498,125,122,122
0.9938066,-0.6019907,2.4214482,126,126,133
0.004035443,-0.16820133,2.4532006,224,221,221
0.6380658,-0.20313644,2.3904996,241,244,252
1.0728462,-0.81470466,2.4389474,101,105,113
-0.47610676,0.094584346,2.4712892,41,59,90
0.3255295,-0.3887005,2.4506576,193,188,186
-0.99676204,-0.09141159,2.5026045,34,48,78
0.22966678,-0.771158,2.481511,10,25,49
0.5956824,-0.13955677,2.4126372,166,164,170
-0.38624328,-0.2876699,2.4790924,22,37,66
-0.28756756,0.36226547,2.437099,56,74,105
0.8058288,-0.9256809,2.6499374,42,67,45
-1.0165105,0.56088483,2.4536262,50,65,96
0.7644799,-1.3047035,2.4858947,152,147,150
0.42398325,-1.455718,2.4992597,195,189,193
0.32344317,-0.080206275,2.4265285,196,189,188
0.14721744,-0.8950155,2.4869895,16,30,56
0.98106307,-1.1206472,2.4623454,137,138,144
0.63375473,-1.2947922,2.4955502,206,201,204
0.40556413,-1.4964252,2.5048003,226,218,222
0.259933,-0.3435743,2.4415405,209,198,195
-1.2190927,0.3151194,2.4866228,56,72,104
0.9050436,-0.31558347,2.4136841,16,34,64
0.8890293,-0.9784248,2.467299,125,120,122
-0.41573095,-0.3627255,2.4833143,18,35,62
-0.0996235,-1.1374695,2.5144768,82,95,121
1.125068,-0.911422,2.435063,111,113,119
-0.19729552,-0.49999714,2.4828029,71,89,118
0.076241955,-1.1166408,2.5063798,61,74,100
0.5479505,-0.28785992,2.4251206,255,251,252
0.6147467,-0.7859864,2.6303325,32,47,71
-1.10388,-0.8394902,2.51798,14,28,54
1.209991,-0.5923834,2.4166245,113,117,125
0.80882937,-0.8106923,2.475146,119,5,25
0.7272694,-1.1586199,2.4712543,201,194,192
-0.20871711,0.15535057,2.4374633,31,49,80
0.44692463,-0.4633112,2.4365244,121,121,124
0.8147621,-0.870795,2.4860582,25,49,41
0.5836004,-1.2529035,2.4863396,173,166,166
0.12544988,-0.23505163,2.4565346,160,158,163
-0.17922479,-0.70648265,2.4872825,27,43,68
-0.8811407,-1.4599614,2.5363536,94,113,147
0.95232815,-1.441797,2.4489238,153,146,144
0.46458516,-0.7280228,2.6668568,230,221,225
0.2520364,-0.24965501,2.4439912,170,164,165
1.1729198,-0.5885813,2.4178047,150,150,156
-0.6908788,-0.928241,2.5218954,31,46,70
1.2832778,-0.8804374,2.4277406,147,145,146
-0.6241108,-1.5349219,2.5331702,37,52,76
-0.50114995,-0.77680516,2.5085936,36,49,75
1.3409244,-0.6529567,2.4031265,114,115,119
-0.32055968,-1.3515139,2.5245194,28,40,63
1.3913584,-0.7959819,2.4066617,127,126,130
0.87242174,-0.63755083,2.4320085,15,27,47
0.60444844,-0.1534177,2.4201634,225,221,218
1.0137808,-0.4797728,2.4128284,190,191,194
0.43588877,-0.28664327,2.4291077,172,170,172
0.8354362,-1.2086663,2.4572217,195,188,190
0.3523471,-0.3043785,2.4416552,180,175,172
0.74850047,-0.68907833,2.6307077,132,123,128
1.2665265,-1.1283634,2.4183388,153,144,143
-0.1529606,-1.3515403,2.5176744,18,26,47
0.9895118,-0.34892607,2.4021592,118,119,122
0.11381413,-0.34261084,2.4561744,138,135,137
0.5613965,-0.71446943,2.631651,10,10,17
1.1996248,-0.2788267,2.3898993,112,114,121
0.14990787,-1.0805824,2.4934888,22,32,51
0.9051196,-0.8964746,2.435322,94,88,89
0.11178881,-0.42044878,2.4636302,69,78,92
0.5935788,-0.32615876,2.4259286,173,173,172
1.1959102,-1.2615564,2.429996,59,52,51
0.24496861,-0.09979868,2.4438038,222,217,213
0.6621927,-0.16175938,2.4185748,237,234,235
1.8849853,-2.0473993,2.7053344,24,24,40
0.61006415,-1.6166523,2.474217,164,160,160
1.046596,-0.6493068,2.4213705,158,154,159
0.16340038,-2.1942341,2.5257144,68,61,62
0.49834663,-0.4761331,2.4383678,20,30,49
1.9351006,-2.0114887,2.239975,28,36,56
0.07389033,-0.33032775,2.4679487,99,98,104
1.4270062,-2.5194268,2.2429276,72,86,113
1.3153921,-0.78526187,2.407533,110,110,115
0.2895755,-1.0945835,2.4982123,115,106,110
1.1822971,-1.5403061,2.4620645,233,209,183
2.451601,-1.5921309,2.6832395,43,45,59
0.2665705,-0.6472752,2.468315,31,41,60
0.8690444,-0.43831396,2.4205875,31,48,75
0.58808136,-1.3875015,2.4796658,185,181,186
1.2152925,-0.979687,2.4161832,119,119,126
0.003430277,-0.7407665,2.496255,36,52,77
0.4720502,-0.40126896,2.4284105,151,152,154
0.058291093,-0.78213763,2.4965913,44,61,88
0.41471562,-0.44543982,2.4435081,177,179,184
1.7918482,-0.21698582,2.353049,187,187,197
0.06162049,-0.5856464,2.4836664,14,31,56
0.9449668,-0.34841228,2.400722,23,39,69
0.4980695,-0.7968049,2.6202583,140,137,147
1.0623925,-0.032852292,2.3793628,166,164,173
0.33795822,-0.5242939,2.453311,100,104,112
0.21188274,-0.5696943,2.467755,23,38,62
-0.02523008,-0.6173277,2.494468,5,22,49
0.57457876,-0.6971874,2.6815085,208,22,35
-0.07307348,-0.6661017,2.4955692,18,33,57
0.47295642,-0.76048255,2.6465337,0,0,8
0.3791376,-0.81352997,2.4733074,1,11,27
0.0069295764,-0.76599526,2.493888,102,119,145
1.6639558,-1.5071671,2.3318765,153,150,152
0.19182128,-0.04034865,2.4442706,133,133,134
0.6109965,-0.7153635,2.718944,67,81,44
2.0746436,-0.24436939,2.3171847,138,135,143
0.5361954,-1.1167624,2.48405,161,155,157
1.3913971,-1.3155818,2.4544768,255,248,226
1.1292422,-0.5495508,2.4024322,120,123,137
-0.34578782,-0.5588455,2.5013504,5,25,53
1.2862412,-2.2364972,2.2618625,15,30,52
0.7248947,-0.9387007,2.6842842,116,162,99
-0.29008996,-1.1926014,2.5314512,46,65,97
-0.083624214,-0.6717286,2.4930897,31,51,84
0.41718376,-0.86645985,2.4851158,42,45,54
-0.23140144,-2.7499628,2.5570016,219,198,177
0.17561918,-2.2302577,2.5449905,233,210,195
1.1793258,-3.103098,2.243455,34,46,68
-0.7946012,-1.0862756,2.5459366,26,42,73
-0.4819178,-1.2316067,2.53442,79,104,142
-0.1746234,-1.2389531,2.5259614,60,81,117
0.31765455,-1.5989139,2.5179834,204,195,195
-0.76259923,-1.2562375,2.5488553,72,95,134
-0.41158682,-1.2988985,2.5383668,43,67,102
-0.076349616,-1.1732016,2.5256143,38,60,101
-0.8649192,-1.0108991,2.5578535,31,51,87
-0.91740966,-2.3169003,2.5964904,28,42,70
-0.3144741,-1.2409618,2.5378244,60,83,124
0.091835156,-2.0233548,2.5543592,142,135,136
-0.7793478,-1.2509167,2.5574892,38,60,93
-0.5960701,-2.4110765,2.5858545,157,151,152
-1.7489917,-2.3181648,2.5991044,123,149,191
-1.4730436,-3.1228547,2.5942955,9,22,48
-0.6945706,-3.11691,2.5736015,255,255,239
-1.1183676,-1.2877057,2.579506,37,57,89
-1.6839346,-3.146946,2.922763,150,140,167
-0.54804415,-1.5444982,2.569203,30,50,83
-1.1996338,-1.2495978,2.5837731,8,29,59
-1.4082989,-1.9425473,2.5919995,152,171,205
-1.2109222,-2.2940326,2.5954778,19,36,61
-0.5215958,-1.6570454,2.5697424,33,54,84
-1.311484,-1.2006712,2.5874999,26,45,71
-1.1213683,-1.3508878,2.575811,78,95,122
-1.9044518,-2.316234,2.6118858,145,159,179
-0.90316904,-1.8409121,2.5823536,52,71,97
-1.5436879,-1.0667238,2.5878901,22,34,57
-1.9973826,-1.5297325,2.6091115,134,143,150
-2.396889,-2.1085591,2.633913,150,159,167
-1.5958849,-2.1927066,2.6023824,81,97,115
-2.6134105,-1.2275033,2.6064208,90,100,110
-0.98139787,-1.4749653,2.5757427,62,79,105
-3.0660865,-0.52523804,2.6224432,61,73,92
-2.1145728,-1.1942067,2.6020494,117,127,133
-1.2711817,-1.541914,2.59546,49,63,85
-1.2143155,-0.77822757,3.1837537,65,80,102
-1.228082,-1.0808046,2.5836854,52,66,86
-2.737267,-1.4248726,2.6236968,166,172,179
-1.5425414,-0.49719715,3.1561172,254,255,255
-1.5700141,-0.7956965,3.2881815,34,54,72
-1.9489613,-1.3689487,2.6028867,128,138,147
-0.95638204,-0.5616014,2.5575118,76,98,128
-1.2659312,-0.71857953,3.297489,121,154,196
-3.1026182,-1.1774101,2.6228414,150,164,177
-1.2737417,-0.29646707,3.0914073,148,158,176
-3.0574791,-0.2250421,2.6211808,61,76,98
-0.97802734,-1.0573921,2.5718322,49,67,87
-1.3691977,-0.01073873,2.5429554,6,22,36
-0.83030355,-0.5842459,2.5455592,42,60,88
-3.6851223,-0.7265425,2.7743196,190,202,206
-3.8160598,-1.6984639,2.7140226,93,117,143
-2.6952777,-0.05330062,2.5949907,53,65,86
-1.6569616,-0.64017034,3.197519,170,193,224
-0.7719625,-0.018578291,2.5050855,93,116,149
-1.4106274,-0.2612958,3.1068373,128,163,212
-3.2552497,-0.9879174,2.6199322,181,189,204
-1.3663791,-0.018933415,3.0719347,150,184,230
-1.0268222,-0.4319744,2.549386,65,84,108
-1.4226036,-0.73442626,3.253605,61,82,109
-2.8445575,-0.025035024,2.6182292,35,47,64
-1.2755022,-0.4960475,2.7802236,107,125,147
-1.1550734,-1.0507894,2.582968,66,77,97
-1.6485785,-0.09680605,3.0547035,125,164,216
-1.2453587,-0.42656016,3.0777597,118,131,148
-3.2690191,0.31350386,2.7368395,99,104,114
-1.3076004,-0.17466736,2.540147,36,52,70
-1.1166841,-0.58098483,2.554222,59,74,96
-1.5582128,0.3299067,2.543022,71,85,107
-1.2467374,-0.030974865,2.5352376,53,75,97
-1.6922278,-0.46808124,3.1601574,135,170,217
-3.703102,-2.6866317,2.6917505,136,155,179
-1.4289995,0.14012778,3.0418875,151,188,233
-1.1248089,-0.19000828,2.5366418,54,73,97
-0.8515376,-0.45839477,2.5356433,77,92,115
-1.4121494,0.2649858,2.5296693,64,83,107
-1.2748147,-0.17289841,2.539242,189,208,232
-3.7096024,-3.1077423,2.6801186,114,130,152
-1.959857,0.122887015,2.5584116,65,73,92
-2.6256804,-1.1846554,2.611288,187,202,216
-1.2636455,-0.5328362,3.156674,154,188,234
-1.6638194,0.07616699,3.0210767,142,175,223
-1.3210298,-0.20903385,2.8104339,117,134,158
-0.927526,-0.7592294,2.5517163,92,105,130
-1.1350572,0.46917737,2.8412166,234,183,207
-0.87917566,0.10940921,2.5146096,104,124,157
-1.7730618,0.33019388,2.5518715,77,90,113
-1.3754833,0.06491637,2.9105172,129,148,171
-1.2345604,-0.5964973,2.981927,121,133,154
-1.7838025,0.10582888,2.8335562,120,135,155
-1.3841228,-0.009236097,3.0827339,161,200,238
-0.73921454,0.050491452,2.5078912,106,128,161
-1.6228471,0.23128986,2.5412848,26,40,60
-1.554657,-0.67400146,3.205205,189,195,202
-1.8019795,0.43479586,2.548528,59,73,93
-1.3329787,0.4649006,2.5192666,84,98,124
-0.8911655,-0.3854289,2.5290256,105,121,148
-1.6495781,0.24410856,2.5411901,63,77,97
-1.1289856,-0.15955603,2.5319493,67,86,109
-2.048274,-0.24845672,2.5769947,50,59,75
-1.2908905,0.21334636,2.5256057,119,144,173
-2.1719162,-0.35236,2.5922751,54,64,82
-1.5403881,-0.1815716,3.0583658,136,163,201
-2.0457573,0.3103075,2.575676,59,73,91
-1.5462813,0.25260377,2.5441253,29,44,66
-0.4569853,-0.67974067,2.523078,94,108,136
-1.6439202,0.15528178,2.5461695,24,37,53
-1.0252031,0.37044477,2.512252,102,120,150
-1.7171068,-0.66921306,3.204912,79,96,123
-0.94749975,0.20631957,2.511286,144,165,197
-1.6767408,-0.69635797,3.222052,80,102,133
-2.3341749,-0.006029725,2.6034527,91,106,128
-1.6996517,-0.479985,3.171769,145,181,225
-0.81425154,0.005691409,2.5205019,112,134,166
-1.835031,0.003222227,2.7275374,19,32,47
-1.151153,0.4127214,2.51194,97,119,148
-1.944035,0.29862726,2.5677574,59,73,93
-2.197298,-1.0642786,2.6027298,205,207,211
-1.6781671,-0.35480523,3.1472769,144,184,229
-2.3908257,0.025826454,2.6130931,76,92,117
-1.5454628,-0.2155546,3.0646722,124,161,205
-2.1265216,-0.27229524,2.591117,54,68,88
-1.7191443,0.42487204,2.554709,85,104,130
-2.0938308,0.06904364,2.5877738,73,87,109
-1.4378564,0.64564586,2.5155115,102,114,135
-1.9488912,0.26686668,2.567731,92,109,134
-1.8466711,-0.5913091,2.5864258,39,48,62
-1.6545943,0.31824648,2.543944,57,75,104
-1.8266561,-0.24482048,2.9015055,46,60,78
-2.0851502,-0.394392,2.6007893,60,83,118
-1.0057168,0.3778782,2.4956877,171,199,243
-1.412225,-0.2563796,3.1259918,87,129,184
-1.8223023,-0.2489748,2.7607496,32,51,75
-2.1067317,-0.2829857,2.5936124,43,66,99
-1.781631,-0.5600376,2.8764646,29,47,70
-1.4631556,-0.74871564,3.3264372,115,157,211
-1.8951399,0.69129825,2.5333676,105,134,182
-1.3022833,0.50325084,2.6077275,130,147,172
-2.1543407,0.03274858,2.5909662,66,92,132
-2.3718226,-0.20917022,2.6288397,89,116,159
-1.7919009,-0.5256946,3.0063257,38,55,80
-2.0339658,-0.8495152,2.613497,197,212,231
-2.2928653,0.03830719,2.6041903,74,103,146
-1.8306334,-0.23676741,2.8576977,40,59,85
-1.7806149,-0.5369258,2.579516,35,47,61
-0.6797494,-1.129406,2.5518796,80,110,153
-1.8955216,0.21796441,2.554782,88,114,155
-1.8360894,-0.21323586,2.9649568,37,56,80
-1.8012817,-0.49596763,2.8924236,35,52,77
-2.1677701,-0.76016355,2.6081638,131,152,180
-2.3770912,-1.037915,2.6158278,155,173,204
-1.0899743,-1.1216707,2.5697117,104,130,172
-2.111053,0.25533974,2.575842,103,130,174
-2.610945,-0.34509468,2.634966,75,105,147
-1.8262599,-0.27034926,2.932709,42,59,84
-1.8559008,-0.48210716,2.5819943,74,89,111
-1.7433178,-0.76378775,2.6884997,30,45,67
-2.037993,-1.1111491,2.615853,81,100,121
-0.39513415,-0.8851428,2.522965,96,122,162
-2.5391476,-0.49875522,2.6291656,71,96,137
-2.2487895,-0.617527,2.6145911,109,139,180
-1.7389667,-0.68496037,2.5871427,14,27,44
-1.8055346,-1.0194166,2.5958896,129,134,147
-1.5919548,-1.1441736,2.594006,22,31,38
-1.7616563,-1.3561375,2.6067672,145,157,178
-1.2136521,-1.266736,2.5854223,68,94,128
-1.9294176,-0.084528804,2.7073889,10,22,41
-2.1574512,-1.0966272,2.6148157,24,37,47
-1.7399919,-0.97399354,2.7690153,35,45,61
-1.6911616,-1.3156445,2.599539,152,163,175
-1.4456929,-1.51899,2.6097212,196,201,216
-2.324334,-1.106461,2.6233726,161,171,189
-1.8455231,-0.69084334,2.5852728,37,56,80
-1.5873125,-0.90896535,2.605082,3,8,23
-1.5393794,-1.4946117,2.6060805,81,92,103
-2.4738002,-1.1968987,2.62331,144,156,180
-2.1317701,-0.72925425,2.5901089,46,59,76
-1.4509642,-0.869545,3.0003479,56,73,98
-1.1932576,-1.2220356,2.591363,109,130,164
-2.3639297,2.15616,2.5389304,70,66,74
-1.7430465,-0.97260356,2.6700094,30,41,54
-0.9448314,-0.22622061,2.514388,89,116,150
-2.3128808,-0.20397437,2.5957255,136,159,195
-1.4795324,-0.7579932,3.2973876,122,149,176
-1.1444796,-1.1667321,2.5838091,53,75,104
-2.319355,-0.08881235,2.5883813,105,127,161
-1.5390767,-1.281302,2.5930126,130,130,139
-1.1000553,-1.5018678,2.5916011,69,90,119
-2.4150403,0.5067594,2.5605874,123,144,172
-1.3446088,-0.7451277,3.2878234,63,82,105
-0.7471781,0.1514293,2.4890413,133,156,189
-1.6931838,-0.88164496,3.2027586,50,66,96
-1.2245516,-0.8705704,2.9483643,62,83,111
-0.9224299,-1.5156322,2.577057,83,104,134
-1.4567297,-0.78395534,3.2883444,21,41,68
-1.1112691,-0.813205,2.5600414,77,99,128
-0.67446995,-0.91744137,2.543594,69,91,121
-1.3921509,-0.7733002,3.281712,44,63,88
-1.1746554,-0.79168916,2.5652983,51,71,95
-0.77719975,-1.0865309,2.5604033,53,76,103
-0.51491207,-1.2080331,2.5568566,110,134,169
-1.4402993,-0.9354663,2.6286867,45,69,105
-0.8582641,1.1537292,2.4212976,107,126,150
-0.2694536,-0.6637051,2.5178294,70,91,121
-1.0677987,-1.0989754,2.5859697,32,47,69
-0.7105563,0.11612165,2.4888234,112,138,170
-1.3468276,-1.0838306,2.5959482,25,40,60
-0.8446393,-0.8430066,2.5589666,45,67,95
-0.29685658,0.24481189,2.4611218,79,101,131
-1.5907438,1.4307584,2.4098606,101,117,139
-0.35109812,-0.4091673,2.5056577,78,100,130
-0.88957024,-0.7498827,2.5607219,74,93,119
-0.59618735,1.0720257,2.4209192,125,148,181
-1.6749002,0.49963212,2.5266578,73,88,110
-0.8721051,2.2707431,2.3088508,78,93,114
-1.2082314,0.07716298,2.5200586,118,143,175
-0.47926766,1.7665203,2.3735945,127,145,174
-0.9836184,0.23995006,2.4966598,111,133,155
-3.0479074,1.6837659,2.5927625,254,255,255
-1.0881162,2.0716488,2.3319879,85,98,122
-1.0055344,0.11691177,2.5002244,154,175,205
-2.445182,0.9936276,2.5026655,165,167,173
-0.7099673,1.0625044,2.4221826,150,173,212
-1.006282,0.37586677,2.4814048,66,84,105
-2.8956208,1.6423309,2.5709465,241,252,253
-0.50490904,0.6688533,2.443071,121,147,187
-0.60504913,-0.08596003,2.4997952,70,91,121
-0.9797485,-0.3052616,2.5326054,72,90,119
-0.78883183,1.4485031,2.398684,116,136,168
-1.5928915,1.5506632,2.408146,80,93,116
-1.4391277,0.24184978,2.5204165,76,94,124
-0.6095959,0.913766,2.4318962,201,226,255
-1.009856,0.5637249,2.6086426,255,234,246
-0.97809625,-0.102374196,2.5225606,57,75,104
-0.64021254,0.69938767,2.4525366,154,177,210
-1.0915215,0.4304253,2.7904105,220,232,241
-1.2196784,-0.33526707,2.550912,83,99,123
-2.2256129,1.5375841,2.515554,198,186,178
-1.3607854,0.08972657,2.633369,80,92,107
-1.1683087,1.1133629,2.4495482,102,120,150
-2.7586515,1.5679455,2.5814612,226,247,247
-1.8955891,0.31792426,2.5423365,60,72,93
-1.1380733,1.3003178,2.432303,98,116,147
-0.7578305,0.541903,2.47578,77,100,133
-0.6759686,0.154356,2.5005465,115,133,161
-1.1673352,-0.18217444,2.5419683,78,96,119
-1.899591,1.1311848,2.4727974,85,97,120
-1.9272187,0.41319883,2.545343,81,95,115
-1.0250125,1.1982496,2.450683,137,157,185
-1.6530437,0.88115376,2.5017488,45,58,80
-0.71809053,0.24442554,2.4935503,91,113,145
-1.812974,0.06829047,3.0618253,132,165,217
-1.9533181,1.0878596,2.485743,99,111,134
-1.0865083,0.5237677,2.8317366,247,146,173
-1.0376916,0.009222269,2.5202873,60,77,102
-1.3033301,0.88670397,2.4804265,25,38,61
-1.1574972,0.43658864,2.835587,250,96,119
-1.3754517,-0.004158497,3.0624318,153,187,232
-1.5716954,0.8309118,2.497532,82,94,117
-0.92063165,0.46887243,2.4908032,234,251,255
-1.3513472,-0.14471102,2.7426777,100,116,140
-0.74529064,0.98813987,2.451011,87,104,133
-1.001628,0.6122571,2.8138385,251,121,140
-1.364441,0.03261602,3.0465114,174,190,213
-2.1929018,0.7944273,2.5201437,79,89,108
-2.1610842,0.16560888,2.5629375,57,63,78
-1.2104472,-0.0013779402,2.5217094,185,210,229
-0.65154713,-0.12515163,2.511621,96,110,136
-1.5729157,0.49999857,2.5155082,63,75,94
-1.0150964,0.28788316,2.4991195,83,99,120
-1.2026027,-0.6413629,2.9504604,137,146,168
-0.98349655,0.9727126,2.4608066,73,92,115
-1.3536481,-0.011401296,2.724416,63,73,82
-1.2214571,-1.5234246,2.5730586,96,104,123
-1.5048345,0.6395165,2.5092235,128,141,159
-1.0501083,0.5629803,2.8155043,255,148,175
-0.69108826,-0.004508853,2.4903305,95,111,136
-1.639184,0.5766084,2.5193996,35,49,70
-1.1667004,0.5197878,2.8368073,255,143,167
-0.5230948,0.71544075,2.4493375,127,155,186
-1.3256495,1.0462849,2.4792318,133,151,174
-1.4351401,0.20001781,2.9836926,130,145,159
-0.8768475,-0.6508827,2.5257597,127,137,155
-1.4810138,0.96321726,2.4927516,96,110,130
-1.0695903,1.0342996,2.4622846,81,100,124
-0.7538209,0.8036529,2.456294,98,120,149
-1.4349536,1.2311056,2.4621372,77,96,122
-1.4939826,-0.33244658,3.0933256,148,173,209
-0.6448823,0.6497222,2.452368,187,209,234
-1.4120462,1.1115766,2.4812598,66,83,108
-0.9415003,-0.45462537,2.5308812,103,117,137
-1.6862769,0.01335907,3.0310347,155,193,241
-1.0854192,-0.6237247,2.5685802,48,62,80
-0.37952793,0.62070274,2.4406085,160,185,223
-1.3132668,0.72452176,2.4995286,58,71,88
-0.78936744,1.043257,2.4414182,71,92,120
-1.4114553,0.99373007,2.4933054,67,88,118
-0.32024872,0.5732949,2.4338875,81,109,150
-1.2700781,0.6474695,2.7283788,223,228,231
-1.5281124,0.03609872,3.0330696,114,140,184
-1.1770084,0.87085086,2.4874558,161,181,208
-1.5182512,0.4993838,2.5302958,51,72,100
-0.77706623,0.99159074,2.4440765,89,112,146
-1.0625198,0.53729856,2.8303268,156,136,162
-1.3205155,0.34697068,2.520955,52,79,115
-1.735951,0.5591353,2.538076,47,70,103
-0.6128495,1.0642896,2.4243174,78,108,152
-0.47365862,0.7868686,2.4314752,93,125,167
-0.9190092,0.76777667,2.4588122,153,182,221
-0.444243,0.41864777,2.4481192,65,96,134
-0.7218993,0.35924685,2.478672,74,103,144
-1.1680753,0.31230044,2.5168767,90,116,147
-1.1803002,0.07523584,2.534093,62,96,141
-1.6871586,1.2585688,2.4772243,43,64,99
-0.9829004,1.0832932,2.447991,126,151,190
-0.8108815,1.0591075,2.4347358,94,123,162
-1.6603295,0.96477914,2.5047839,31,54,89
-1.310655,1.1554217,2.4636927,54,80,120
-1.3904824,1.1927826,2.4650688,106,132,172
-1.776731,1.0075083,2.5029747,54,80,120
-1.0144598,1.5575073,2.4152107,139,165,207
-1.8716214,0.831599,2.529945,50,78,117
-1.867163,0.7742295,2.5293822,33,60,96
-0.06510216,2.609559,2.252158,51,69,97
-1.6702952,-0.13046348,3.069378,75,122,191
-0.7565167,0.41469193,2.4748402,127,156,196
-0.6674889,1.3471329,2.402004,96,118,158
-1.6254256,-0.20732284,3.0817246,67,113,178
-1.68687,0.0020667315,3.054295,84,131,202
-0.91278267,-0.42261028,2.5401492,23,49,81
-0.93983245,0.3962394,2.4919987,57,85,126
-1.4780354,-0.5121665,3.1790757,66,110,172
-1.3135834,-0.65534043,3.2143059,125,148,183
-1.6320198,-0.3514316,3.1452081,68,111,170
-1.5648233,-0.4206245,3.1626136,79,120,183
-1.1840703,-0.9637046,2.5932393,23,44,74
-0.6306497,-0.58259463,2.5329318,26,49,82
-0.83547246,-0.58073306,2.5503016,24,48,78
-0.56789243,-0.2847216,2.5064578,56,79,114
-0.4143625,0.02188766,2.48096,47,70,103
-0.7019102,0.1445365,2.4823256,69,94,133
-0.3870718,0.7484503,2.4264765,90,116,158
-0.7459427,0.46743143,2.4632149,183,209,252
0.030542046,-0.79811907,2.489027,105,123,158
-0.8175616,-0.96183777,2.558592,27,50,83
-0.9324764,-0.81309843,2.5549467,45,67,99
-1.0301251,-0.7275543,2.5647893,20,47,81
-1.065863,-0.29035807,2.537335,25,49,84
-0.5358391,-1.0167263,2.5409381,109,131,164
-0.9229752,-0.0097100735,2.5082598,31,57,97
-0.75101054,-0.56065464,2.5421486,43,61,93
-0.16799915,1.6192708,2.3345041,99,120,158
-0.49932545,-0.35709,2.5072074,33,53,81
-0.21694836,0.8592051,2.405651,65,91,135
0.06998032,-0.20081401,2.4552383,176,169,166
-0.69049877,-0.24786699,2.5116842,8,32,65
0.19280198,0.57970357,2.4034524,156,154,157
-0.1387747,-0.046304584,2.46907,14,36,65
0.16518533,-0.23763812,2.4576468,121,123,128
-0.33138788,0.1171993,2.474111,16,38,71
-0.20338276,0.49949336,2.440121,42,67,106
-0.1327953,0.10744727,2.4572124,8,27,57
-0.24709558,0.16358972,2.4688258,25,43,70
0.22452141,1.3748232,2.3451807,99,119,155
1.4068269,1.0522058,2.2759478,114,111,113
0.9129136,0.70905554,2.3353853,199,191,187
0.4810768,0.65725076,2.3765302,14,29,53
0.6860056,1.2445229,2.323643,35,47,71
0.293346,0.3620863,2.4228692,132,128,127
0.83716613,0.6751338,2.3487666,104,101,102
0.24589348,0.45225787,2.4117644,155,152,152
0.5104939,0.23204052,2.4064121,74,74,81
0.28234667,0.7324878,2.4047613,91,94,100
0.6535941,0.09595215,2.3971672,108,111,117
0.7114631,0.997651,2.3407683,74,73,78
1.0126786,0.21627188,2.3586972,163,161,166
1.2499774,0.10942042,2.344798,138,135,137
0.7053926,0.49298203,2.3670335,143,140,140
0.79764766,0.41606867,2.3642707,86,89,96
0.7650572,0.99081445,2.3316946,156,153,153
0.31216308,1.317342,2.3519602,10,24,51
1.5855638,1.4147667,2.7448227,200,155,124
0.026138991,1.3123341,2.35768,45,63,92
0.36660853,0.71831024,2.377137,167,165,167
0.10021359,0.9361528,2.3796453,0,21,50
0.120599195,1.5488153,2.3324509,23,45,78
0.23981138,0.8306,2.382076,27,47,78
0.19529113,1.4944241,2.3321214,52,75,110
-0.00764513,0.89995795,2.3969116,18,40,73
-0.16247788,0.69734216,2.4258337,27,47,75
0.09998755,1.1634092,2.3658066,45,65,98
0.0724237,1.7131239,2.3293576,56,77,115
-0.041157752,1.2899739,2.3711205,70,94,131
-0.2715122,1.4676948,2.3824432,21,44,77
0.78350544,1.8114775,2.2669191,49,71,104
0.4057552,1.9305471,2.292655,79,101,141
1.007973,2.1481018,2.2264142,84,105,143
-0.015650064,2.0133526,2.3201928,41,63,101
0.1330005,2.1007302,2.2987907,52,74,115
-0.4249019,1.1872535,2.4111326,78,102,136
-0.07335299,1.1409806,2.386176,34,58,93
-0.34563893,1.2850056,2.4059067,39,61,94
-0.33482176,1.267162,2.4018366,37,58,94
0.40043485,2.3222349,2.2620826,124,146,186
0.84243846,2.0811331,2.2431087,141,161,203
1.560498,1.7550113,2.205633,176,175,170
-0.09567729,1.9368948,2.327065,30,54,89
-0.25976092,1.7929662,2.3517332,63,83,116
0.08003856,2.5238106,2.279337,31,53,82
-0.04569587,2.0362372,2.3155143,39,62,97
0.8672329,2.6232548,2.2098894,114,136,176
1.1682961,1.7939353,2.240684,197,197,197
-0.2434991,1.8762479,2.3396409,41,64,99
0.24683739,2.3381112,2.274162,68,92,129
0.022821099,1.9305654,2.3195455,34,55,87
1.9234151,1.9220066,2.1800802,68,86,117
0.15707126,1.8466864,2.3122768,109,136,171
0.31417856,2.3400803,2.2674701,39,63,100
0.038503453,1.8536321,2.3210866,16,38,72
0.2511079,2.2929688,2.2738369,44,68,107
0.8825141,2.668687,2.211728,58,82,118
0.25408033,2.1766148,2.282939,44,68,104
0.41490573,2.7342238,2.2388692,41,64,97
0.6327907,1.9518898,2.2661247,75,98,133
1.878324,1.8916606,2.1926298,57,75,106
0.76456594,1.4769963,2.2943115,218,209,205
1.4432961,1.6291296,2.2360744,171,166,163
1.3633809,2.5095365,2.1751342,246,235,235
1.428844,1.302238,2.2586877,169,165,157
0.71538806,2.6229665,2.2186608,47,67,100
0.26091114,2.2509563,2.284861,43,63,95
1.0723511,1.8965352,2.24125,69,75,89
1.5360899,2.2839305,2.1796136,189,182,181
0.3858348,2.512533,2.2598162,41,63,96
0.6672771,2.7308984,2.224018,43,65,97
1.1675315,2.8315501,2.180366,120,146,186
0.7052839,2.1852882,2.2458272,52,75,110
1.1323364,2.3382976,2.200068,66,93,121
1.6208643,2.6508672,2.1521587,249,239,240
0.6044068,2.6575541,2.231066,52,74,105
0.98603004,2.7687154,2.200253,78,103,128
0.5140856,2.5878174,2.244544,36,54,83
0.9995883,2.6094146,2.201477,54,74,106
1.5995955,3.0136497,2.1341653,178,176,180
1.6673714,1.7190754,2.625486,94,78,70
1.3631802,3.2002406,2.1404188,177,174,176
0.99842346,2.802415,2.1923637,38,57,83
1.6856822,2.6600354,2.1437793,143,140,139
1.1161327,2.1301413,2.2050583,78,95,120
1.9364746,1.7496426,2.434426,106,86,78
0.89770335,2.4117723,2.210094,47,65,96
1.1758509,2.8624887,2.1719143,27,46,71
2.33058,1.9079027,2.1439705,52,70,99
1.241936,1.96881,2.2161992,181,175,178
1.9373547,1.7921884,2.7358572,120,96,85
1.1205373,2.743055,2.1833315,26,44,73
1.8382714,2.4524448,2.1450248,191,184,182
1.5662558,1.3736602,2.2521539,10,21,39
1.8021641,2.9247513,2.119432,141,142,146
1.6221877,2.052475,2.1871138,213,205,203
1.0974877,2.6556542,2.2043195,13,27,53
1.6433216,2.854947,2.1346111,115,117,123
1.3478044,2.495944,2.1817913,142,141,146
2.2123861,2.1350856,2.1469703,23,40,65
1.6118412,2.2889833,2.1713936,154,150,149
2.528093,2.0200222,2.139128,139,139,146
1.9556268,2.5438018,2.1439638,24,36,57
1.6868923,2.4196808,2.1650372,148,147,146
1.2918215,2.4558465,2.1915514,73,86,109
2.4129424,1.1575103,2.193471,202,195,194
2.0705843,1.6866248,2.2035341,30,38,58
1.8584797,1.7741747,2.5386848,69,53,45
1.8435316,2.0885472,2.1781483,14,26,45
1.8346444,2.448402,2.168933,118,116,118
1.3908709,1.9788514,2.2269268,183,173,167
1.373986,2.2079477,2.197698,93,91,94
2.533244,1.7324214,2.1692276,154,152,154
2.276838,0.753382,2.2300959,185,182,180
2.2753725,1.7770773,2.1821764,34,46,65
2.1286051,1.667452,2.4952328,94,77,70
1.9169331,1.7587057,2.5598183,71,55,47
1.6895846,2.3040302,2.1727,149,148,146
0.76880634,2.2382007,2.2334232,29,42,67
2.011461,1.7745728,2.8421307,95,75,68
1.763355,1.8566899,3.1209557,88,71,68
1.6382095,2.0493007,2.1929145,217,212,210
1.5475067,2.340988,2.1584146,186,185,182
1.2752876,2.5540438,2.183272,49,65,95
-0.38682377,2.053208,2.311757,38,51,78
1.1187737,2.996741,2.176657,30,44,70
0.2874711,1.061456,2.366234,89,121,178
0.22519055,1.7701135,2.302448,43,57,84
0.8962588,2.8010547,2.1918526,33,51,80
1.5026748,2.300759,2.1822302,198,191,188
-0.6734811,2.0898619,2.311214,33,47,75
1.7143338,2.4763048,2.1676333,176,175,176
-0.15146911,2.0846288,2.297965,38,54,85
1.3517479,2.1875181,2.1943362,27,40,64
0.37699202,2.3581939,2.2482846,39,58,89
1.2305155,2.0485163,2.212906,84,95,117
1.0961176,2.8195353,2.1795342,66,86,119
-1.0540376,0.18517947,2.4564962,25,43,72
0.785469,2.9086776,2.1944113,54,73,108
1.2616992,2.6340172,2.1809585,50,68,99
0.722519,3.052804,2.1885667,55,77,109
-1.2852378,1.0601856,2.430327,59,72,98
0.9159162,3.1181908,2.1842694,117,137,173
0.5049456,2.1870139,2.253195,58,76,104
0.38345435,2.7262547,2.221159,96,113,140
1.0584857,2.3434515,2.210229,92,110,141
0.86529857,2.801509,2.1990912,81,99,128
-0.25871986,0.9949445,2.385223,136,152,186
0.5957812,2.6628332,2.215941,52,69,96
0.64539456,1.9139915,2.2583632,92,109,144
0.7122605,2.5392597,2.2150998,35,51,85
-0.027972609,2.464393,2.2634954,147,158,176
0.83851206,2.1724262,2.2292814,119,137,174
0.6209793,2.3875904,2.2326422,88,108,143
-0.33982158,2.288834,2.2909625,95,113,145
0.32552123,2.992302,2.204227,52,69,104
0.27581748,2.0688095,2.2777557,32,49,83
0.3071398,2.417892,2.254654,57,80,116
-0.36563283,2.2286274,2.301447,100,118,149
0.18118331,2.9593544,2.2112093,82,98,132
-1.0396998,0.6796545,2.55095,253,251,253
0.10068157,2.119676,2.290477,123,145,176
0.04175684,2.4087558,2.2742195,79,102,137
-0.7094771,0.36788857,2.4422808,110,122,153
0.37819615,2.2336102,2.266396,78,99,134
-1.0720419,1.4790531,2.4045978,129,141,171
-1.0211514,0.066387415,2.4867177,110,125,159
-0.9302237,1.0936182,2.4211292,145,159,189
-0.9479481,1.7287729,2.3761754,63,78,108
0.22162095,1.7980874,2.3057418,117,142,183
-1.0651244,1.1709514,2.4256182,103,117,143
-1.1343755,1.8677988,2.364098,70,83,106
-0.82546604,0.70049727,2.4427714,107,121,143
-1.1215942,1.483728,2.4031782,80,91,110
-0.3845014,1.0267633,2.4045782,215,229,255
-1.2974486,1.0821822,2.4442093,161,173,194
-0.3975771,0.66993535,2.3731036,143,158,186
-0.53989273,1.4136544,2.3877199,60,74,95
-1.5262581,1.540966,2.408493,77,89,110
-0.13195074,1.7565103,2.3398266,84,101,126
-2.3556404,1.1522158,2.5057154,75,83,61
-0.4895652,1.5416591,2.377081,73,90,112
-0.7318039,0.32185686,2.469518,115,127,147
-2.429621,0.26110244,2.556063,86,96,114
-0.20963413,1.3866229,2.3770807,102,123,152
-0.6352724,1.8556861,2.364824,87,108,136
-0.89966404,0.9633291,2.441597,125,139,160
-0.81928587,1.9639955,2.3644066,88,106,129
-1.1426793,1.0496159,2.4510508,214,231,251
-0.7995688,0.6135067,2.4560921,151,166,188
-1.9831572,0.9691464,2.4912686,67,78,97
-1.1744395,0.7075374,2.476459,97,110,125
-1.3106872,-0.3087585,2.8720598,98,113,137
-0.9095398,1.4122529,2.4150481,88,107,131
-0.5372537,1.234153,2.4121227,148,169,196
-1.1235405,-0.38785124,2.5448163,81,94,117
-3.165516,-0.095944524,2.6212294,37,48,61
-0.744182,1.0865308,2.4264927,94,111,136
-0.8600172,0.20231628,2.484683,84,97,122
-2.378991,0.519501,2.5455816,56,66,85
-1.1793541,0.840445,2.470368,70,83,100
-0.59000355,0.97168297,2.4310575,97,118,146
-2.404858,0.812759,2.5221233,92,100,120
-1.3021894,1.0317591,2.4643502,75,93,116
-1.0959692,0.67967546,2.5077043,87,94,102
-0.7082849,0.61560464,2.4564257,179,201,231
-1.5446867,1.0704428,2.4748917,77,90,106
-1.7965212,0.28296638,2.5385592,46,58,73
-0.9127368,0.5697167,2.4728298,100,119,142
-2.4547067,0.50079703,2.5531974,90,99,121
-1.176687,0.8376968,2.4752522,85,100,121
-1.0043263,0.54195976,2.812151,243,117,146
-1.3558325,1.1106238,2.4751859,95,114,138
-1.2555407,0.65638125,2.4954991,40,45,58
-0.8993437,0.38254297,2.4865918,154,171,198
-1.7398245,0.57159257,2.5175579,83,97,117
-1.0450474,0.611972,2.8192575,228,122,153
-1.9519451,0.6378181,2.522552,104,118,138
-1.1658543,0.699893,2.8125196,166,138,153
-0.9428823,0.2423681,2.50667,231,248,255
