-0.72923803,-0.15553689,2.5101137,88,106,135
-1.7351041,0.6312722,2.528208,94,109,133
-2.0362017,0.13239181,2.5795085,89,100,119
-2.4939632,-0.6371243,2.6086884,143,145,150
-1.6233063,0.5876112,2.5293999,98,111,134
-2.8058999,-1.4443069,2.626058,175,181,188
-2.657547,-1.3899333,2.619253,180,186,193
-2.8166125,-1.8936937,2.6514251,185,193,204
-1.4501683,0.5472908,2.5212371,74,89,114
-1.442224,0.4631542,2.5278113,66,81,105
-1.4154441,0.41014576,2.5300312,116,132,156
-1.4135377,0.28993595,2.5307887,44,64,88
-1.3309838,0.3610878,2.5266767,86,109,136
-1.4396014,0.12107825,3.0532577,155,193,233
-1.3334059,-0.023275137,2.5398571,130,144,162
-1.4476739,-0.22967601,3.1024985,157,182,213
-1.1240376,0.2698877,2.515794,196,211,232
-1.1275125,-0.028961897,2.5234282,149,175,209
-1.036678,0.084255815,2.5162435,112,138,171
-0.9694575,0.09710181,2.5140011,121,144,179
-0.8774631,0.30926418,2.496354,95,121,152
-0.8392619,-0.008082032,2.506455,92,114,147
-0.763399,0.14250398,2.49397,114,137,171
-0.6975539,0.23246408,2.4818816,122,144,177
-1.8864124,0.41786444,2.5525079,44,58,79
-1.785481,0.48683095,2.5426593,129,136,152
-1.7214096,0.5048225,2.5395308,119,132,157
-1.7107216,0.43678725,2.5433772,56,71,96
-2.426677,-0.93391466,2.6024299,172,181,193
-1.8140197,-0.008483171,3.0761514,130,150,186
-1.7164917,0.08643818,3.041819,150,191,238
-1.6266379,0.15220463,2.5441468,18,31,48
-2.4626906,-1.9414833,2.6329558,183,187,195
-1.5796099,0.05493033,3.0214078,133,159,199
-1.3372458,0.42546833,2.5233874,56,77,106
-1.4373722,0.18726587,3.0359623,170,198,229
-1.5399842,-0.32972646,3.0763874,69,96,132
-1.2937341,-0.093865275,2.5331287,112,135,162
-1.2682991,-0.29628158,2.5475323,47,62,84
-1.1754147,-0.23460758,2.5368028,72,89,114
-1.0588468,-0.0005879402,2.5171695,113,136,169
-1.0986786,-0.9494908,2.5520768,118,128,148
-0.959793,-0.60101056,2.5401413,86,99,124
-0.8797208,-1.0364003,2.5412216,133,144,170
-0.7726697,-0.46879983,2.5229897,122,136,163
-2.3390868,-0.16610658,2.6026664,47,55,74
-3.3541996,-1.8302319,2.6809225,184,207,232
-1.7828474,0.48761404,2.5464315,174,181,187
-1.7881176,0.393705,2.546107,84,99,121
-1.7565444,0.35421884,2.544145,115,129,149
-1.6253378,0.4967667,2.5381706,140,153,176
-1.5821296,0.48355985,2.534569,122,137,161
-2.616416,-1.8656101,2.640785,174,176,179
-1.7302272,-0.06261706,3.0924902,151,190,238
-1.592946,0.06748307,2.5408757,35,45,56
-2.3596337,-2.2186344,2.641736,150,157,166
-1.5226183,0.0738492,3.0293996,128,154,188
-1.4523326,0.14620292,3.0486095,153,189,230
-1.5248911,-0.32680607,3.083648,52,79,113
-1.2774374,-0.07675588,2.5312428,104,128,157
-1.234235,-0.22616112,2.5366669,70,89,115
-1.4344734,-0.7107253,3.247208,108,130,163
-1.0152956,0.21443868,2.5086255,81,104,137
-0.95411336,0.1360116,2.5117176,99,122,155
-0.9013413,-0.22910237,2.5229058,174,191,215
-0.819111,0.118982315,2.5037093,90,112,143
-0.7117484,-2.0403378,2.5826132,82,92,109
-2.5439594,-0.5392983,2.6099813,58,69,88
-1.8483775,0.46706367,2.5532303,61,75,96
-2.2403727,-0.28919005,2.599887,52,62,81
-3.1113238,-1.9907813,2.6909242,201,227,255
-1.6944822,0.48390698,2.5395885,92,107,131
-2.8294656,-1.9333379,2.6608367,164,180,196
-2.7442324,-2.0191975,2.6630087,204,219,232
-2.353345,-1.4068367,2.6130571,179,184,189
-1.6773483,0.06050372,3.0287895,154,195,240
-1.5338163,0.22949505,2.536052,49,63,84
-1.7162768,-0.3258438,3.139188,153,187,231
-1.4674414,0.15883887,2.77708,69,84,98
-1.4358869,0.19652557,2.9896111,143,154,165
-1.2438141,0.41106856,2.5219314,102,119,144
-1.431431,-0.20806003,3.0783257,90,113,146
-1.2789309,-0.5283513,2.5518293,41,56,77
-1.1161345,0.029071212,2.5213404,65,91,124
-1.0577701,-0.16540182,2.525494,92,111,137
-0.9678656,-0.06462622,2.5173287,115,135,164
-0.90810704,-0.9148681,2.5454938,90,102,123
-0.81529593,0.27685213,2.4847345,98,121,156
-0.7406614,0.0024906397,2.5002508,157,175,206
-2.7197719,-0.88504386,2.6129808,135,143,154
-1.8084254,0.55376446,2.5449128,55,68,91
-2.0726933,-0.019702792,2.5810728,73,83,99
-2.7105527,-1.3782556,2.6196964,172,182,192
-1.7169544,0.4642427,2.544067,59,74,98
-1.70199,0.38860643,2.5444992,22,37,59
-1.6609998,0.36350155,2.5401556,60,76,98
-1.5550903,0.4981742,2.5355134,74,90,115
-2.3353934,-1.8059301,2.629438,188,194,201
-1.7077585,-0.153085,3.0998347,148,189,236
-1.5459381,0.17865443,2.9802732,174,185,195
-1.4132245,0.28964794,2.5287385,43,62,86
-1.4616028,0.18017972,3.0361183,158,189,227
-1.3408735,0.05642104,2.5433588,131,153,175
-1.2406634,0.22581685,2.5215292,104,127,154
-1.2107761,-0.016537905,2.5250049,193,221,252
-1.1230752,0.15672588,2.5193715,113,139,171
-1.0909075,-0.41048717,2.5408192,76,94,117
-1.0006456,-0.50913167,2.5388815,81,96,118
-0.90213513,-0.82455015,2.5432577,161,173,194
-0.8440701,0.28719485,2.4931898,95,118,153
-0.76814973,0.183738,2.4899874,132,154,187
-2.8286147,-1.1262617,2.6097336,169,184,207
-1.8915167,0.435215,2.5536084,69,83,103
-2.0520017,0.022544503,2.5821404,62,72,88
-2.3705945,-0.76194215,2.6010976,184,193,206
-1.6835113,0.58079576,2.5344315,73,86,111
-2.2050898,-0.77683234,2.5970604,179,186,196
-2.1329188,-0.8122387,2.6022596,110,116,122
-1.7744775,-0.044286728,3.104476,140,170,213
-1.6781254,0.09452772,3.0284202,150,191,236
-1.5796639,0.15887344,2.5482726,10,24,41
-1.4347395,0.48152328,2.5356784,91,107,131
-1.5228977,0.15493393,3.0258243,137,159,192
-1.5946751,-0.35788083,3.136663,133,160,195
-1.5281045,-0.34430265,3.1277375,143,175,215
-1.4450756,-0.23167777,3.1002867,152,181,215
-1.4039681,-0.34693003,3.1254642,162,197,237
-1.1604896,-0.23709345,2.5390372,29,48,71
-1.0784782,-0.42405438,2.5386198,68,86,109
-0.9670085,-0.9742508,2.5449762,96,106,125
-0.8818768,-0.35115576,2.5247068,120,138,167
-0.76397085,-0.701596,2.5353925,93,112,135
-0.6627896,-0.6983316,2.5352197,99,117,146
-2.2024853,-0.07911742,2.6002157,47,57,75
-2.3558688,-0.51478744,2.6058428,56,67,86
-1.783587,0.5701728,2.5429301,82,97,121
-1.9527423,0.08130658,2.5663648,67,76,92
-2.0849178,-0.38494086,2.5744078,70,78,98
-1.8032582,0.12628329,2.9186592,116,132,149
-1.7507377,0.13823783,3.0323122,200,217,235
-1.7010245,0.15463507,2.9797792,131,146,156
-1.6152966,0.22326005,2.5441794,78,92,112
-1.7343774,-0.29735017,3.1390622,144,174,216
-1.5253017,0.10301483,2.5483906,40,51,64
-1.4897491,0.17169309,2.8496077,118,132,150
-1.5157534,-0.10812211,3.0536547,153,176,209
-1.286433,0.39739752,2.5247676,72,93,120
-1.4339179,-0.3426485,3.1290774,144,179,220
-1.375567,-0.37083173,3.1359513,124,142,173
-1.1323624,-0.6130192,2.5493703,84,102,122
-1.0281326,-0.7423849,2.5477052,77,91,111
-0.8568088,-1.6127405,2.5567498,160,176,193
-0.78580165,-0.91642904,2.5414338,77,92,115
-0.8387799,0.33022523,2.4967241,80,104,139
-2.1016073,0.21391976,2.5870738,64,78,96
-2.6585467,-1.0844073,2.6200705,172,187,208
-2.8336494,-1.6873486,2.651238,165,170,180
-1.793859,0.56998515,2.5430627,64,79,101
-1.7840447,0.48110366,2.5490232,66,81,102
-2.4128253,-1.423034,2.6127396,180,186,193
-1.7853708,0.13744807,2.9977121,124,139,153
-1.7409995,0.1345172,2.5519674,26,39,56
-1.6140841,0.39274466,2.5464466,66,84,107
-2.0065663,-1.4937661,2.6137173,173,176,176
-1.6034077,0.14271021,3.0102525,144,177,218
-1.6429927,-0.2936492,3.1226046,126,149,184
-1.4301491,0.18879318,2.5374398,98,112,131
-1.4529722,0.19533694,2.9967513,212,226,239
-1.2946742,0.27967453,2.529031,77,101,132
-1.2334026,0.27292156,2.5252368,115,139,170
-1.377742,-0.7402086,3.249868,72,87,109
-1.0862186,-0.47093678,2.5465112,82,100,123
-1.0130411,-0.02921915,2.522165,88,110,140
-0.7832924,-1.396136,2.5595005,167,183,208
-0.78268266,-0.46787238,2.5336838,167,180,205
-0.7759464,0.08794308,2.4990208,97,119,151
-1.9446988,0.5132499,2.56218,62,76,95
-2.3134124,-0.47557855,2.60882,39,49,68
-1.8620527,0.51685894,2.548674,69,82,105
-2.049774,-0.11698997,2.5754576,48,58,74
-2.4842887,-1.5771587,2.6160295,184,186,191
-1.8377321,0.086152434,3.0547721,136,157,187
-1.7925992,0.11037409,2.7822757,95,111,129
-1.6907793,0.30153978,2.54673,59,74,94
-1.7823043,-0.26224923,3.1312046,100,120,153
-1.62635,0.13219106,2.7402098,122,138,153
-1.6269504,-0.040849447,3.0389814,155,195,237
-1.674343,-0.65475154,3.218072,135,167,209
-1.4280154,0.11059034,2.554669,43,51,57
-1.3433652,0.32872236,2.5295177,91,112,140
-1.4445506,-0.4510584,3.1509364,160,199,239
-1.3732498,-0.20491695,3.1200562,153,187,223
-1.1356696,-0.21134245,2.5373034,73,92,116
-1.0570974,-0.03683448,2.5227387,111,136,167
-0.89656377,-0.6359377,2.5356085,101,116,140
-0.9079838,0.1573646,2.5047174,75,97,127
-0.72134864,-0.38903546,2.5252302,113,133,161
-2.0781288,0.29870057,2.5797267,76,88,107
-1.9685478,0.435897,2.5663986,66,80,101
-1.9117227,0.46636868,2.5592127,76,91,113
-1.869216,0.4569279,2.5569677,58,71,94
-1.8353698,0.41712987,2.5556903,89,103,124
-1.799403,0.37574816,2.5560908,55,71,88
-1.7046864,0.55550146,2.5361166,62,79,103
-2.0433748,-1.1825101,2.6043096,167,170,172
-1.7112586,0.12262118,3.0345514,151,192,237
-1.6050813,0.31279743,2.5469732,55,74,95
-1.6282351,0.043296456,3.0200377,156,196,238
-1.5035143,0.21524417,2.541852,33,51,72
-1.5891546,-0.48961902,3.1565144,125,147,180
-1.3816421,0.25082886,2.5299764,74,94,121
-1.3183937,0.24785101,2.5265799,74,98,127
-1.2561792,0.2909906,2.5249608,107,131,162
-1.1962527,0.3516587,2.5186563,92,113,141
-1.0594331,-0.41999936,2.5384798,105,123,151
-0.92055047,-0.7382808,2.541761,86,101,125
-0.7260113,-1.2429242,2.5487704,112,127,149
-0.6217663,-1.0974631,2.5340044,112,129,154
-0.7913084,0.13055754,2.5008163,146,168,200
-2.5862637,-1.0873673,2.6108418,179,195,212
-2.312411,-0.55074954,2.6028433,67,81,99
-2.3373904,-0.8509803,2.6034603,181,188,198
-2.314874,-1.0477645,2.602682,113,125,131
-2.3523273,-1.5155525,2.6188283,167,170,172
-2.2385857,-1.4566407,2.613318,166,167,170
-1.8005874,0.10261011,3.0676208,154,189,231
-1.7119695,0.32957363,2.5484095,46,60,80
-1.7488458,-0.13831306,3.1200006,153,189,234
-1.6323193,0.08910322,2.548378,36,47,60
-1.6229366,0.011263609,3.0274081,155,195,237
-1.5060031,0.09039283,2.5395615,8,19,30
-1.5554607,-0.44338822,3.1496656,156,187,224
-1.5120906,-0.71624327,3.2653096,71,91,118
-1.4240705,-0.61266875,3.1739924,81,110,148
-1.3662821,-0.25267887,3.1235888,153,188,227
-1.1604475,0.09263134,2.5241158,93,119,150
-1.0856299,0.13745582,2.515984,80,103,135
-0.81641674,-0.8788173,2.5392327,118,133,156
-0.7525257,-0.6270125,2.5288978,83,98,122
-0.47962272,-1.177897,2.5219848,174,194,222
-2.1574523,0.11317575,2.5997357,51,63,84
-1.9756246,0.53479326,2.5595264,98,113,136
-2.5828304,-1.7373924,2.6255774,166,169,175
-2.3816876,-1.3619063,2.6130576,178,183,186
-2.344499,-1.5995283,2.6141953,167,172,177
-2.3167603,-1.9513884,2.6296303,174,179,183
-1.8114741,0.22251058,2.557457,51,65,84
-1.7206194,0.46971548,2.5429933,52,68,92
-1.936358,-1.7151792,2.6106315,175,180,182
-1.6848238,0.08066368,3.031969,149,192,236
-1.6951382,-0.65200543,3.211957,107,131,158
-1.5854219,0.1365695,3.0114088,144,173,212
-1.4698101,0.4759457,2.5348048,95,112,136
-1.4949894,0.13854206,3.0327642,119,141,171
-1.4415765,-0.037989974,3.0699182,114,135,163
-1.2496656,-0.07067382,2.537003,109,135,167
-1.2304026,0.382743,2.522779,76,94,121
-1.1066238,0.06262958,2.5208206,113,139,173
-1.0105774,-0.0014977455,2.5181565,105,130,162
-0.9745176,0.21365786,2.5059757,86,110,140
-0.55422133,-0.9564681,2.5300329,114,130,155
-0.60475725,-0.38336968,2.5191178,98,119,149
-2.034381,0.3958732,2.574737,82,96,116
-2.0587432,0.13180196,2.5799117,80,92,111
-2.1002831,-0.26549673,2.58862,90,100,118
-2.2157497,-1.1151063,2.603404,184,187,189
-1.8306589,0.55811524,2.5348415,70,83,106
-2.2430737,-2.400714,2.6309538,143,152,160
-2.0001132,-1.4737246,2.615202,195,196,200
-1.7425065,0.14688611,2.9746127,127,140,153
-1.7309849,-0.2818551,3.1461368,150,184,228
-1.6074505,0.3377614,2.5415883,117,135,156
-1.6061866,-0.029847026,3.0329587,153,193,235
-1.499371,0.4573617,2.542331,54,70,94
-1.512371,0.18612921,3.0223458,196,217,237
-1.4573432,0.031157494,3.059757,115,136,164
-1.2844174,0.10593307,2.5311809,141,167,193
-1.3002082,-0.37898278,3.1435628,162,196,233
-0.8506366,-1.3095267,2.5579076,98,112,129
-0.798105,-0.9360502,2.5407004,90,104,124
-0.884074,-0.15728676,2.518112,77,96,122
-1.157868,0.55147827,2.8337576,217,141,171
-0.74708533,0.028978467,2.5065885,101,120,149
-2.530555,-1.2754631,2.621509,186,192,199
-2.1942863,-0.2965703,2.5917711,50,60,78
-2.4123385,-1.5294118,2.622452,105,113,118
-1.944783,0.34549022,2.566278,33,44,63
-2.0071962,-0.26615357,2.575134,59,69,85
-2.0115895,-0.71671486,2.5795836,73,85,100
-1.778759,0.51860356,2.5454466,84,99,121
-1.7820661,0.017077923,3.088133,148,184,227
-1.696135,0.31268287,2.5520046,106,120,140
-1.6431463,0.13471627,2.5485866,50,63,78
-1.5838974,0.4320402,2.5416746,48,67,91
-1.5801836,-0.3255756,3.080236,83,114,152
-1.5052202,0.15945578,2.799024,98,114,131
-1.4589831,-0.5126884,3.1617157,230,248,255
-1.3552096,0.3291663,2.532029,197,218,240
-1.3146596,-0.6323204,3.2104185,140,169,210
-1.169283,0.06507301,2.528428,98,124,154
-0.84299004,-0.9985578,2.5448532,123,136,159
-1.2385871,0.50443137,2.8088834,248,255,255
-0.96452093,0.20972049,2.5076675,113,135,166
-0.8873719,0.22608149,2.5020807,85,107,140
-0.3623855,-0.89842916,2.5270362,165,183,212
-2.4369946,-1.0612087,2.6057625,162,172,182
-2.272596,-0.7088971,2.598373,171,179,191
-2.4107187,-1.7341664,2.6217747,166,168,172
-2.2594986,-1.4583886,2.6132882,72,86,95
-2.1653678,-1.4663651,2.613015,182,184,188
-1.9599962,-0.6082244,2.5891552,55,63,74
-2.0075753,-1.9924715,2.6147275,157,165,171
-1.7327824,0.36376786,2.5530267,37,53,75
-1.724962,-0.1568501,3.1095831,152,190,234
-1.6177717,0.47440195,2.5424356,61,79,102
-1.6132127,-0.030146599,3.0346348,154,194,236
-1.510081,0.39522135,2.5418253,74,95,123
-1.508619,-0.067064166,3.0533717,124,148,179
-1.4062138,0.46594822,2.5311017,76,94,117
-1.344593,-0.55526614,3.1721907,97,120,156
-1.1983526,0.050446272,2.5258617,84,111,139
-1.0518255,-0.21506286,2.5277863,82,101,125
-1.014969,0.00818944,2.517758,113,136,170
-0.966892,0.14300358,2.509903,81,105,136
-0.8097186,-0.058896303,2.51035,91,111,139
-0.79961836,0.16088009,2.49946,111,133,165
-2.3574457,-0.693805,2.5996065,184,192,204
-2.1298666,-0.0001001358,2.5919404,68,78,96
-2.1501508,-0.37435484,2.5927968,57,69,86
-2.1305847,-0.63688517,2.592663,131,143,163
-2.0683,-0.7078018,2.5894334,115,129,147
-1.9818416,-0.61500955,2.5833638,116,125,139
-1.8187671,0.3671415,2.5561137,62,77,97
-1.8019972,-0.00048244,3.1010332,119,143,178
-1.750663,0.0051033497,3.0848694,155,194,236
-1.7044487,-0.42656636,3.167452,150,186,229
-1.6323633,0.14625633,2.869592,123,138,152
-1.5771637,-0.6475482,3.2173939,60,69,75
-1.5580479,0.15347481,3.0213425,133,160,197
-1.45858,-0.4245739,3.1515684,153,193,235
-1.3662988,-0.68934774,3.2285755,126,150,184
-1.3470922,-0.27657247,3.1298928,158,195,233
-1.1188126,-0.092145085,2.5267854,73,96,120
-1.0850574,0.113762975,2.5219154,87,113,147
-0.9331609,-0.055360794,2.5167875,77,98,124
-0.5987757,-0.67286205,2.5251946,89,106,133
-0.8981769,0.32132494,2.522975,122,114,139
-2.2998068,-0.39254165,2.5914893,38,47,63
-2.1374624,0.06806743,2.5910254,52,62,81
-2.1893828,-0.48337126,2.592723,50,62,81
-2.2598858,-1.3417275,2.610474,169,171,174
-2.205313,-1.6119854,2.6186862,173,175,180
-2.1342576,-1.867029,2.6094172,170,175,180
-1.9582236,-1.0143971,2.600007,123,123,122
-1.8703513,-1.2102365,2.6017628,177,177,177
-1.7379193,0.2829877,2.5517206,55,70,91
-1.7167388,-0.17597401,3.1134098,149,188,230
-1.6261526,0.4390806,2.5497108,63,78,100
-1.6184689,0.109623194,3.0201886,147,187,231
-1.5157605,-0.7416923,3.27382,53,68,90
-1.4945457,0.17147124,2.8628576,108,122,139
-1.4271873,-0.22037101,3.0975456,33,47,60
-1.4297304,0.1982044,3.008961,181,188,197
-0.9303161,-0.8387556,2.540673,77,91,109
-0.6462298,-1.3707349,2.5436025,151,169,190
-0.9295343,-0.104827166,2.5169423,78,98,124
-0.32678038,-1.383599,2.5402806,92,110,132
-0.3823197,-0.88783216,2.5210419,120,139,165
-2.3082595,-0.3646202,2.5941901,48,58,76
-2.1311846,0.22670078,2.582445,97,110,133
-2.181184,-0.34696436,2.591588,54,64,82
-2.2152395,-1.0189097,2.598674,180,181,184
-2.1879241,-1.4832218,2.6113622,150,153,155
-2.135986,-1.9547412,2.6174567,160,162,166
-2.0658705,-2.562086,2.6320662,155,170,184
-1.8375492,0.20148242,2.559106,61,74,92
-1.8019862,0.12379646,3.0548317,171,194,221
-1.7359555,-0.5884547,3.1812997,92,111,137
-1.7029096,0.11080408,3.0334346,146,187,232
-1.6139907,0.38733566,2.5461884,72,90,113
-1.5789335,-0.1532048,3.055407,149,189,231
-1.4806205,0.23630261,2.544942,107,125,146
-1.4567965,-0.256505,3.1007361,155,195,237
-1.3932161,0.40753973,2.5357022,66,85,111
-1.3232706,0.38135898,2.5294344,61,82,108
-1.1086464,-0.06199932,2.5295131,100,123,150
-0.9391633,-0.28048944,2.524736,83,102,128
-0.9224107,-0.049022198,2.5153825,82,100,129
-0.45578432,-0.90394783,2.5155978,122,137,162
-0.7606939,0.0049546957,2.5039673,94,112,143
-2.4247851,-1.2077322,2.6097727,194,198,206
-2.4846153,-2.1526122,2.6512506,144,151,160
-2.0814397,0.22018194,2.5798092,74,86,106
-2.0901973,-0.308568,2.583528,52,62,78
-2.07837,-0.9462874,2.595896,217,220,227
-2.0547347,-2.0166695,2.6089702,170,174,178
-1.9524496,-2.3559532,2.6056948,149,157,162
-1.8139353,-2.0744812,2.5967104,167,170,172
-1.7782073,-0.2117567,3.1249163,109,129,160
-1.7347629,0.05006671,3.0563347,152,192,234
-1.6391163,-0.47775865,3.1578798,141,168,204
-1.5962245,0.34247804,2.542339,63,81,104
-1.5447359,0.14089692,2.7664952,92,108,125
-1.5342286,0.09381592,3.0256302,132,157,194
-1.4793884,0.07811916,3.0371795,120,140,173
-1.3176568,-0.39475775,3.1561518,148,184,227
-1.0445956,-0.24728203,2.5239253,95,115,142
-1.0666275,0.08210063,2.5161152,104,127,160
-0.76906466,-0.38191533,2.5206645,113,130,156
-0.5402225,-0.5968468,2.519289,105,122,149
-2.2281897,0.2158544,2.5957122,54,68,89
-2.3449914,-0.9538238,2.6124692,169,177,187
-2.339118,-1.52931,2.6306865,164,168,171
-2.2323458,-1.3646538,2.6154096,174,177,177
-2.1387823,-1.2977252,2.607572,145,147,150
-2.0610924,-1.5408914,2.6041422,143,147,150
-1.9766278,-2.2460911,2.6158423,165,172,180
-1.860641,-2.0306594,2.6056914,187,191,194
-1.8359909,0.11287284,2.9964967,109,122,135
-1.7822895,0.057827592,3.076052,152,188,229
-1.691797,0.13148904,2.54911,12,24,39
-1.6129898,-0.57497525,3.180999,123,153,188
-1.5700694,0.14361477,2.5475397,49,62,79
-1.5247844,-0.2601328,3.0701432,149,181,221
-1.4979763,0.37950945,2.540372,66,85,110
-1.3996481,0.24753499,2.538473,66,89,116
-1.4180522,0.017398357,3.0763402,148,186,231
-0.5664756,-1.5467181,2.552195,92,109,133
-0.8300444,-0.51497626,2.5338006,169,186,210
-0.4403569,-1.0662453,2.5256402,105,127,156
-0.26440746,-1.0862267,2.5163794,152,172,200
-2.251235,0.08329451,2.5958827,67,79,98
-2.53096,-2.6465592,2.7018895,146,174,205
-2.1425006,0.20793235,2.5863383,74,87,110
-2.121845,-0.11168444,2.5832424,57,67,85
-2.064174,-0.06829572,2.5764542,61,71,88
-2.0122018,-0.21415782,2.5765529,59,68,84
-1.9512618,-0.3725543,2.5764036,90,101,115
-1.8994062,0.083477736,2.7071095,154,165,176
-1.8451614,0.06455541,2.9946773,98,111,126
-1.7184622,-0.6793349,3.196369,78,95,121
-1.7506089,0.14706445,3.0189052,206,222,237
-1.5906057,-0.65323377,3.2028987,52,67,89
-1.6052616,0.29956424,2.5456777,33,49,66
-1.579124,0.15959167,2.8733566,133,144,156
-1.5059657,-0.060330033,3.0521348,129,155,189
-1.4823371,0.17403162,2.9201021,138,151,166
-1.3225764,-0.28001046,3.1485894,164,195,227
-1.1331878,0.0413208,2.5237546,111,137,171
-0.6847899,-0.71858144,2.5326486,155,175,202
-0.71955,-0.35925198,2.5188546,105,122,149
-1.2662165,0.5283644,2.842209,236,242,241
-2.2565732,-0.05882132,2.598013,57,71,91
-2.3013906,-1.0838697,2.6110454,163,165,169
-2.1332822,0.33253956,2.5812829,50,65,88
-2.1180665,-0.2850728,2.591478,52,62,80
-2.0767775,-1.2817125,2.603681,172,175,177
-1.9783859,-2.5349174,2.6192203,173,188,203
-1.9639573,0.3778572,2.5618641,86,100,120
-1.80444,-1.3166187,2.5957122,203,201,203
-1.8045232,0.06793141,2.5582206,88,100,115
-1.787291,0.12964773,2.9770598,127,141,151
-1.6152921,-0.74819016,3.2500515,64,86,116
-1.60998,0.06594849,2.5398812,31,40,53
-1.581625,0.23221803,2.5442746,48,63,83
-1.5283911,0.27639055,2.5419683,54,71,92
-1.4345183,0.18483257,2.5434096,57,73,90
-1.291234,-0.53305626,3.1834416,143,177,220
-1.285304,0.24287641,2.5302258,80,105,136
-0.84837496,-0.5042784,2.5279944,88,102,122
-0.9186572,-0.12531233,2.5175714,92,110,140
-1.1298205,0.43549883,2.5210576,91,107,131
-2.2722943,0.25515258,2.5956202,67,82,105
-2.2956536,-0.56122994,2.6021252,60,72,91
-2.34544,-2.4698653,2.6560829,146,157,167
-2.1528606,0.028823376,2.5862455,80,92,111
-2.1124172,-0.75902796,2.592712,125,131,138
-2.0175068,-2.3011003,2.6184328,172,177,182
-2.0126617,0.23902476,2.5723195,53,68,88
-1.9518776,0.04639983,2.5759616,49,58,72
-1.908323,0.16569972,2.567053,47,60,77
-1.8258829,-0.06628871,3.0851235,94,108,129
-1.6690638,-0.7479365,3.2356796,62,81,112
-1.7114908,0.10395777,2.6885686,119,132,146
-1.673764,-0.028994203,3.0415738,145,189,233
-1.5544642,-0.27983904,3.0744593,130,170,214
-1.4790905,-0.35905647,3.139996,130,162,200
-1.4294541,-0.2968638,3.1254516,155,197,239
-1.478463,0.17108762,2.9054358,129,142,155
-0.46204388,-1.6292646,2.5482903,89,104,126
-1.3082039,0.43383002,2.532127,75,94,120
-0.8133253,-0.31269884,2.5270824,85,105,137
-1.096785,0.381526,2.510577,124,145,174
-2.2790236,0.29353094,2.5885262,80,95,117
-2.2349472,0.3326937,2.5858502,85,100,124
-2.2127826,-0.15915966,2.5943437,61,75,95
-2.158931,-0.22072506,2.5915232,56,69,86
-2.099568,-0.3687346,2.5899725,90,104,122
-2.021697,-0.7541795,2.5923078,55,65,74
-1.8971636,-1.5042763,2.6011581,186,188,192
-1.743154,-2.1073322,2.60468,175,181,186
-1.7890298,-0.7856431,2.5891573,45,50,61
-1.8142166,0.17016828,2.5594244,115,123,145
-1.7659712,-0.0653615,3.1050508,148,187,229
-1.5765065,-0.7141123,3.2527452,89,116,151
-1.6959926,0.41506648,2.550715,71,86,110
-1.6241435,0.37480688,2.5458202,72,89,114
-1.5614965,0.37188327,2.5444255,63,80,101
-1.5132532,0.41273546,2.5401053,72,93,120
-1.364555,0.23880208,2.5335984,93,117,146
-1.1838169,0.08246136,2.5223017,75,101,135
-0.657993,-0.70692635,2.535637,85,104,130
-0.9711789,0.0621202,2.5154526,148,169,205
-1.003182,0.28610408,2.5093994,87,104,139
-2.3113463,-0.0849607,2.6047132,64,77,100
-2.3222044,-2.1108906,2.6368942,146,152,159
-2.2180667,-0.068051815,2.5973806,58,72,90
-2.1450093,-1.3718553,2.6078398,182,184,188
-2.133339,0.22210133,2.5811734,75,92,117
-2.0486631,-0.36462164,2.5803986,74,87,102
-1.909766,-1.1699791,2.5937407,175,175,175
-1.6241218,-2.8066459,2.607936,166,168,171
-1.7253144,-1.2246025,2.6111114,138,139,142
-1.899076,0.41990793,2.560721,80,95,118
-1.71098,-0.38897467,3.1550848,159,195,236
-1.7031063,0.09869552,2.5501194,34,47,64
-1.6564058,-0.118613005,3.0599988,138,183,229
-1.5239382,-0.38063192,3.140873,145,176,214
-1.3684316,-0.6314447,3.175012,52,71,97
-1.3139212,-0.5924828,3.2036777,123,150,187
-1.4407845,-0.051819444,3.069236,114,132,163
-1.436603,0.09752166,3.0660293,145,185,230
-1.35713,0.48453784,2.5235987,72,90,113
-1.0711708,0.15084541,2.5124424,100,123,149
-0.9747498,0.15263033,2.510685,126,149,183
-2.3252382,-0.1310904,2.6068082,72,85,108
-2.2751074,0.06650174,2.5956454,50,64,84
-2.230547,0.13583183,2.5891023,72,87,110
-2.1835692,0.106095076,2.5866385,56,70,91
-2.1253965,-0.04966271,2.5823205,70,83,101
-2.030784,-0.4807937,2.5868244,128,142,160
-1.8794377,-1.1720996,2.5919335,173,174,175
-1.7249284,-1.617127,2.603802,190,195,200
-1.9250984,0.065268636,2.5848277,33,44,54
-1.7311487,-0.5595763,3.1901715,109,128,154
-1.8100169,0.220132,2.5589845,53,68,88
-1.7084221,-0.1657381,3.0993662,152,191,229
-1.7537327,0.41890645,2.543221,91,105,126
-1.5757122,0.095562935,2.5463061,14,25,38
-1.5942814,0.02884531,3.026864,140,180,225
-1.5360905,0.027223706,3.0345027,138,171,213
-1.3938679,-0.17964196,3.122793,158,194,237
-0.78156435,-0.71920276,2.5326135,93,111,132
-1.3806714,0.5055971,2.5312185,70,85,106
-0.47357303,-0.7274909,2.5194452,93,108,132
-1.050065,0.29338264,2.5113611,112,132,159
-2.3287547,-1.7100534,2.629645,172,173,177
-2.2245114,-1.8292904,2.6270092,166,172,177
-2.1309493,-1.8127861,2.6258297,163,168,172
-1.9903266,-2.4142995,2.6225593,158,169,180
-2.1519718,0.23486471,2.586339,83,103,131
-2.061386,-0.12863004,2.57569,56,68,85
-1.9655912,-0.38041067,2.5749812,152,165,180
-1.9749482,0.037664175,2.5732706,48,58,74
-1.7413964,-0.74332166,2.788942,104,107,114
-1.7183692,-0.55181646,3.1986287,128,154,190
-1.798074,0.10483003,2.7245002,153,165,179
-1.6404302,-0.37538838,3.1434133,129,168,210
-1.6753315,0.17575514,2.556348,82,93,112
-1.6036404,-0.10042918,3.0487213,135,177,224
-1.3493593,-0.63879704,3.2289789,121,152,190
-1.5130062,0.27316308,2.5433497,66,87,113
-1.5115082,0.17360592,2.9294965,120,134,146
-0.74190164,-0.7532139,2.546303,133,154,183
-1.3788714,0.48486996,2.531951,64,82,105
-1.3044336,0.49941552,2.524011,56,68,91
-1.0759647,0.32491398,2.5151772,146,168,198
-2.3231227,-0.9115422,2.6095414,182,184,190
-2.295009,0.1224314,2.5996132,60,75,97
-2.2521975,0.1420567,2.592183,60,75,97
-2.1983323,0.04964304,2.5894337,64,76,96
-2.1315405,-0.099704385,2.5869794,66,78,97
-2.0474288,-0.30286694,2.5835862,55,68,85
-1.9841187,-0.3105793,2.5772355,63,76,91
-1.9686291,-0.06937051,2.576004,52,62,78
-1.9324481,0.046342373,2.6793802,60,67,78
-1.9226942,0.29514682,2.562767,64,78,99
-1.8118668,-0.057958603,3.093628,107,129,160
-1.7768807,0.1989274,2.5574725,26,40,60
-1.6239463,-0.29405236,3.1305225,149,188,230
-1.6875795,0.29301322,2.546152,72,87,107
-1.645554,0.087569,3.0212703,137,178,227
-1.5208251,-0.05957091,3.0469096,140,175,214
-1.3675486,-0.25149202,3.1250396,145,182,225
-1.5067441,0.19318557,3.010395,219,234,255
-0.35165048,-1.1185644,2.5303159,169,188,209
-0.706847,-0.3761692,2.5201583,97,115,143
-1.1216625,0.34046686,2.513472,97,119,149
-2.3681476,0.24246144,2.5977163,73,92,115
-2.308652,0.017439127,2.604755,87,101,122
-2.2319999,-0.35551214,2.604101,60,74,92
-2.1251533,-0.82962966,2.5919852,175,176,179
-1.9249387,-1.7839069,2.609203,118,126,128
-2.1722348,0.34380066,2.5775418,59,75,100
-2.1170123,0.28127873,2.579775,79,96,121
-2.0905902,0.37598467,2.5767028,87,102,124
-2.0316646,0.34702313,2.5734847,77,91,110
-1.9513752,0.30731452,2.5678666,84,99,121
-1.6187274,-0.7308526,3.255446,67,91,122
-1.7416263,0.06470919,2.5495536,10,21,34
-1.7108728,-0.066360354,3.0680923,166,205,243
-1.4526399,-0.56371784,3.17108,125,163,209
-1.6414037,0.3060683,2.5441363,57,72,95
-1.5429838,0.25383615,2.5395052,77,95,117
-1.5064036,0.15816247,2.8359509,98,112,129
-1.4391025,0.033823013,3.0795555,140,175,222
-0.7628814,-0.44911146,2.5206618,92,108,131
-1.1887488,0.30433404,2.516832,130,152,185
-0.91332126,0.1073401,2.5092268,153,179,214
-2.311683,-0.8516166,2.6035547,191,200,214
-2.2714396,-0.5059304,2.6076424,82,96,116
-2.1677635,-0.9263096,2.59942,89,99,109
-1.9716382,-1.8475859,2.6122942,116,126,132
-2.222457,0.30388188,2.5845175,98,112,132
-2.1664486,0.23518407,2.5869136,73,87,113
-2.1394181,0.3262614,2.580484,69,85,109
-1.7932565,-0.87613916,2.5845113,37,42,53
-2.041347,0.35344887,2.5753574,66,78,99
-1.8325202,-0.12809038,2.7681324,36,42,57
-1.8362851,-0.012144208,3.021069,67,76,91
-1.5847203,-0.55751777,3.172176,151,188,226
-1.7441623,0.22720742,2.5529623,64,78,96
-1.7160425,0.13525093,2.924924,118,132,142
-1.6421914,0.056842923,3.0265589,134,175,224
-1.5374936,0.24856758,2.5427644,167,181,200
-1.4141613,-0.12644064,3.1049094,136,168,210
-1.4962585,0.46716428,2.5388303,108,125,150
-0.35499203,-0.9109733,2.5193822,142,162,189
-0.9261055,0.01230979,2.514655,92,113,143
-0.6503714,-0.15651858,2.5290308,110,128,158
-2.2932246,-0.68886423,2.5991025,197,208,220
-2.2886848,-0.16741848,2.6040657,78,90,105
-2.2218547,-0.27982235,2.5996099,85,99,119
-2.1423419,-0.42336845,2.5923362,71,85,105
-2.0560384,-0.54921603,2.5892973,134,147,164
-2.0469217,-0.28920102,2.5777688,59,72,89
-2.0929444,0.14078963,2.5828652,35,49,68
-1.836292,-0.5129659,2.569891,61,68,77
-1.7787223,-0.4845531,3.0393674,91,95,105
-1.7770815,-0.32328296,3.140749,110,129,159
-1.723145,-0.29943275,3.1405778,152,192,234
-1.565976,-0.51566577,3.1691823,184,207,225
-1.4143234,-0.7091155,3.2586875,77,95,118
-1.7299199,0.3547958,2.5524018,34,49,71
-1.6961477,0.41609454,2.5501866,66,82,106
-1.5390521,0.29281175,2.5419056,175,192,219
-1.5408278,0.18585825,2.9801815,121,132,142
-1.4939475,0.20472991,3.0294619,194,211,235
-0.83839655,-0.158036,2.5059917,91,108,135
-1.1078782,0.29080224,2.5169635,111,133,165
-0.9354025,0.24218464,2.514454,111,135,172
-2.1147952,-1.8577461,2.623401,194,194,202
-2.0339136,-1.774621,2.621138,168,174,179
-1.9945195,-1.4682393,2.6133125,183,186,186
-1.9248142,-1.3754096,2.60843,183,183,184
-1.9200332,-1.0150497,2.5929132,80,82,85
-1.9901099,-0.4337783,2.5831957,149,163,180
-1.7469447,-0.99457717,2.5978146,168,170,172
-1.9311781,-0.13470268,2.5701067,41,50,64
-1.8022408,-0.3549044,2.9338083,51,60,74
-1.6383737,-0.6516936,3.2021823,61,79,99
-1.5213019,-0.7632754,3.2629745,66,81,104
-1.7549458,0.12143123,2.5586572,32,45,59
-1.7717822,0.13000989,2.9599986,116,130,140
-1.6537521,0.12373114,2.748419,168,190,213
-1.3753779,-0.38511133,3.1436417,128,153,186
-1.6049993,0.17661905,2.9779243,136,148,155
-1.3418006,0.1851021,2.5315223,126,150,179
-0.7335162,-0.38983893,2.514968,91,110,135
-1.077914,0.18059492,2.5155873,210,228,255
-0.40121043,-0.35935163,2.5154073,97,109,132
-2.219245,-1.0694137,2.615434,123,131,137
-2.0092974,-1.874579,2.6269073,185,190,195
-2.332075,0.21830618,2.5968547,79,94,118
-2.254912,0.05834055,2.5976372,83,95,116
-2.212229,0.077943444,2.5915985,77,89,111
-1.6681165,-1.6618469,2.5932527,179,180,181
-2.0272765,-0.17239082,2.5766122,63,73,90
-2.0964682,0.22909093,2.5849307,92,106,126
-1.9293094,-0.05478835,2.5740528,54,62,75
-1.6696255,-0.6324792,3.2141151,146,171,202
-1.8379798,-0.010553837,2.7823923,30,40,56
-1.7534726,-0.1506803,3.1189313,158,194,235
-1.5821574,-0.35544467,3.1358225,137,178,222
-1.4297915,-0.49436712,3.1542814,150,183,200
-1.5442016,-0.1390866,3.054871,133,171,216
-1.464715,-0.14261794,3.0769377,122,143,177
-1.5029514,0.3024224,2.5380936,75,98,125
-1.2998606,0.18963456,2.5311902,175,201,232
-1.425575,0.4663242,2.5297942,69,88,114
-0.5226697,-0.3343153,2.515446,126,141,165
-1.3333021,0.5610912,2.5612907,217,224,235
-2.1093152,-1.4230196,2.6078508,178,184,192
-2.365247,0.13598621,2.600501,66,81,105
-2.2382166,-0.22184479,2.6012435,70,84,104
-2.0956059,-0.55943537,2.5972333,95,109,127
-1.9752166,-0.7470782,2.5928352,52,62,78
-2.0484746,-0.29054642,2.5851798,60,72,89
-1.9587133,-0.34054494,2.5774035,107,118,133
-1.7499604,-0.67400765,2.5759006,15,22,33
-2.038336,0.19029045,2.5768013,103,115,135
-1.8236289,-0.18574274,2.8573909,55,64,76
-1.6065866,-0.54749584,3.169374,147,183,226
-1.8776884,0.24377489,2.5617764,53,66,84
-1.7615757,0.16558862,2.5612245,48,61,78
-1.625481,0.077806234,2.5489912,33,47,58
-1.7692726,0.40663552,2.5540917,83,101,122
-1.4937087,-0.067166924,3.0627115,132,161,200
-1.475274,0.27442884,2.5369687,96,120,151
-1.3109545,0.22413409,2.5271363,188,214,246
-1.3267964,0.3740914,2.5200427,96,120,151
-1.4785645,0.6216495,2.5216389,77,90,113
-0.67728835,0.02666998,2.5143123,112,130,159
-2.0104337,-1.6345835,2.6102037,179,181,187
-2.3760276,0.13393462,2.599548,73,88,112
-2.213681,-0.29691792,2.603868,63,77,95
-2.138192,-0.36181784,2.5948112,45,59,78
-2.1683478,-0.08831239,2.58917,44,58,76
-2.224561,0.22011948,2.59023,94,111,138
-1.7459247,-0.81481266,2.705409,55,61,74
-2.0447512,0.06432402,2.5837884,66,78,97
-1.7594156,-0.46788216,3.1649604,116,133,162
-1.9228594,0.041447043,2.7682235,129,143,162
-1.7979252,-0.14703977,3.1194932,130,155,189
-1.9456048,0.35060406,2.565373,83,95,117
-1.8156493,0.12628949,2.9501467,117,131,141
-1.7018228,0.019762397,3.0416713,156,196,238
-1.6824707,0.28665113,2.5480554,66,81,103
-1.6227773,0.32956958,2.5451102,82,101,125
-1.6321026,0.45266676,2.5430372,84,102,124
-0.47279823,-0.6553004,2.5231524,97,116,141
-1.1443404,0.18927598,2.519337,115,139,170
-0.91969573,0.10918498,2.5112896,111,133,167
-1.2773861,0.4865812,2.5947752,208,222,233
-2.3254306,-0.25678587,2.6169314,115,128,153
-2.2172213,-0.42787433,2.6059623,73,87,107
-2.273196,-0.07924652,2.5993686,85,101,125
-2.3207211,0.19611847,2.5899081,73,88,112
-1.7728765,-1.0794086,2.5949934,176,174,179
-1.9218371,-0.49530315,2.576714,67,76,88
-2.031405,-0.077644825,2.5791447,45,58,75
-2.1206644,0.2419442,2.5822794,67,81,102
-1.8194549,-0.23836982,2.8903017,56,65,79
-1.640504,-0.4676442,3.1614265,143,181,226
-1.466588,-0.6278837,3.1859417,87,112,144
-1.8007302,0.15301657,2.5585341,105,117,137
-1.6522058,0.06391919,2.5435658,16,27,40
-1.3402164,-0.42136502,3.1465302,134,166,205
-1.5947914,0.0509001,3.02877,134,172,219
-1.4522566,0.20850325,2.535232,78,97,121
-0.115312606,-0.9820061,2.4977555,128,147,170
-1.2667239,0.2771281,2.5253172,161,184,217
-1.0214655,0.1881814,2.5069733,183,205,237
-0.8430321,0.16912746,2.5014873,123,145,178
-0.62402964,0.1485405,2.4946098,126,144,175
-2.4069881,0.14545,2.602572,100,118,145
-2.2441936,-0.17131746,2.6031675,78,92,112
-1.7143496,-1.3599188,2.6027012,188,189,192
-1.8006449,-0.91526175,2.5928445,57,62,77
-1.733438,-0.83105254,2.9140508,66,72,87
-1.9206676,-0.31117368,2.5726128,115,123,137
-2.1074882,0.17011762,2.5827875,92,105,123
-1.8159833,-0.26874375,2.993899,55,64,78
-1.5296904,-0.6479223,3.190184,78,101,128
-1.9149041,0.17527127,2.5675097,88,102,120
-1.8492754,0.09654617,2.9318004,110,120,131
-1.6935178,0.0955497,2.5465496,20,33,46
-1.5629414,-0.11176574,3.0518715,128,168,212
-1.6757855,0.130929,3.0221014,140,179,227
-1.670689,0.41489983,2.5455995,110,127,154
-1.3348701,0.21335089,2.5277143,140,168,198
-1.3247485,0.3340572,2.5232363,105,127,159
-1.5499297,0.6183249,2.5302513,87,106,130
0.17412615,-0.5151572,2.4554582,183,186,200
-1.3033504,0.643394,2.4981527,115,124,138
-2.306444,-0.15183115,2.607128,73,88,110
-2.2776492,-0.08140659,2.6042368,102,118,143
-2.0887926,-0.3806603,2.5940301,96,111,134
-1.9473634,-0.5065527,2.5830986,103,113,123
-1.7537963,-0.70751905,2.813743,74,78,88
-1.9564044,-0.20551455,2.574613,39,48,63
-1.6272236,-0.6648605,3.22546,130,143,150
-1.9082351,-0.051321864,2.6471212,49,57,61
-1.786833,-0.19269824,3.122765,130,158,197
-1.4098232,-0.63736296,3.2258992,154,171,191
-1.9029922,0.2648238,2.5667353,105,121,139
-1.4806075,-0.28986907,3.0967624,48,58,74
-1.8284459,0.37726796,2.557731,238,251,255
-1.8313758,0.47604823,2.561632,94,112,133
-1.4659244,0.024469614,3.0563774,122,147,184
-1.5610213,0.4324801,2.538405,68,88,114
-0.40979892,-0.35932684,2.491226,109,123,143
-1.6347736,0.67604613,2.5317478,96,113,139
-1.0187426,0.351179,2.497174,114,136,169
-0.1162031,-0.07701862,2.4679248,126,135,142
-1.8479195,-1.3133342,2.5997345,187,187,188
-2.1151526,-0.4732306,2.5964007,118,132,152
-1.3797891,-1.8924801,2.594912,183,188,193
-1.9324226,-0.5422964,2.587041,93,102,114
-2.2054832,0.10122776,2.5967035,67,82,104
-1.784334,-0.5207403,2.9649088,70,75,87
-1.9735501,-0.083577156,2.57476,94,105,120
-1.6148179,-0.5730541,3.1742418,138,176,221
-1.9251516,0.03151834,2.7559416,132,147,169
-1.664537,-0.2919848,3.1301785,137,176,224
-1.9228203,0.24732506,2.5731041,58,73,93
-1.7906511,0.18909454,2.5593402,40,55,77
-1.6169173,0.11475432,2.544316,88,102,119
-1.6624907,0.27382565,2.546699,44,60,82
-1.6676393,0.3817687,2.5460045,82,99,126
-0.31428665,-0.63623714,2.504589,118,133,155
-1.0684828,0.12614381,2.5102234,105,131,165
-0.4821741,-0.1642834,2.4891362,106,123,148
-1.0432787,0.33429193,2.5024986,141,162,192
-0.49023837,0.1323067,2.4765458,120,137,164
-2.206734,-0.45415354,2.6037676,123,138,161
-2.2518435,-0.19065487,2.6024604,76,91,113
-2.2810972,-0.005794883,2.6041222,43,59,83
-2.04488,-0.31155133,2.589225,49,62,80
-1.7490852,-0.66904926,3.1531715,79,94,115
-1.8887291,-0.33159447,2.5759926,102,106,114
-1.5503705,-0.76140785,3.2706146,49,67,88
-1.8236172,-0.20311713,2.6825655,29,35,50
-1.7398527,-0.27517056,3.1375117,153,189,231
-1.5535753,-0.41788125,3.149251,129,169,214
-1.315199,-0.5970416,3.15954,105,123,153
-1.8222878,0.08527315,3.082956,135,171,214
-1.6305842,0.14788508,2.549114,99,112,131
-1.7346258,0.35226536,2.5505047,53,69,93
-0.098332345,-0.9099312,2.4979157,115,134,158
-1.2272089,0.1550194,2.5309482,109,133,162
-1.556758,0.5030123,2.5378222,85,104,128
-0.39240628,-0.15854514,2.4908843,133,148,170
-0.45895725,0.031276107,2.486369,96,113,141
-1.3052114,0.62420404,2.530166,79,89,99
-2.2579985,-0.24990189,2.6118011,71,86,108
-2.1016452,-0.42484474,2.605102,119,136,155
-1.737253,-0.8523238,3.1526911,30,41,56
-1.7555232,-0.70683527,2.9150984,74,79,91
-2.0480008,-0.12726057,2.5824387,52,65,82
-1.7711718,-0.45576668,3.1640966,121,139,169
-1.9527075,-0.060367823,2.5815845,36,45,58
-1.717528,-0.3433659,3.1498175,161,196,235
-1.946826,0.12432659,2.575722,74,86,105
-1.7394347,-0.14117563,3.1089818,144,174,207
-1.567049,-0.23606718,3.0732985,116,154,199
-1.826577,0.268847,2.5616326,70,85,106
-1.6557087,0.21057439,2.5467072,52,66,86
-1.608237,0.2726053,2.5438623,94,113,139
-1.7638404,0.48837686,2.5583982,111,128,155
-0.24580401,-0.49039626,2.4942393,147,161,181
-0.8514615,0.07769787,2.4982276,94,114,146
-1.2932628,0.4479282,2.5239086,74,92,113
-1.2629778,0.46778548,2.6496494,201,206,211
-2.3320825,-0.21119761,2.6258855,144,160,184
-2.1174765,-0.470284,2.6085482,94,114,132
-1.7655213,-0.9697957,2.5899131,30,32,36
-1.7427328,-0.80415916,2.7866032,64,71,87
-2.14589,-0.044898152,2.5941057,61,75,93
-1.7838202,-0.48662806,2.8428378,46,55,69
-2.158288,0.15567386,2.592367,115,131,154
-1.87638,-0.14502203,2.7571855,41,46,51
-1.6367421,-0.40271926,3.147873,132,170,218
-1.9638638,0.16872776,2.5783033,119,131,150
-1.8523839,0.05723667,2.9064307,51,59,71
-1.3010201,-0.47659302,3.158004,144,182,220
-1.8418441,0.31341624,2.565845,94,108,134
-1.6448404,0.23882782,2.5512128,73,91,114
-1.6238514,0.32137322,2.5462513,103,122,148
-0.11414856,-0.6454344,2.4914935,125,139,157
-1.1476744,0.20841348,2.5141883,163,184,210
-1.4675773,0.49614203,2.528038,86,103,127
-1.5842059,0.64761686,2.529637,94,111,138
-1.2913834,0.5352864,2.6327295,206,212,219
-1.7492521,-1.3021593,2.5938573,181,180,180
-2.121284,-0.42843008,2.6066604,107,122,143
-2.0896573,-0.34608698,2.5974863,81,98,119
-1.9302404,-0.4847548,2.5851264,109,118,131
-1.6833225,-0.7106588,3.2272031,94,116,149
-2.0059443,-0.1495086,2.5822446,46,59,76
-1.8097079,-0.3273363,2.8968904,55,64,78
-1.8084776,-0.25648022,3.110022,81,95,115
-1.8089485,-0.17364943,3.1116827,104,123,148
-1.8461084,-0.03499651,3.0095894,48,57,69
-1.8750374,0.17728496,2.5710804,66,80,100
-1.8444328,0.244501,2.56767,90,108,131
-0.48068887,-0.80567384,2.5358803,106,124,145
-1.721622,0.33901858,2.5529828,106,123,148
-1.5764064,0.33608902,2.5432243,69,90,118
-1.2259707,0.2150681,2.5262852,114,140,171
-1.3710874,0.4188913,2.523672,71,90,115
-0.71956694,0.20115077,2.487583,130,149,181
-1.3164214,0.5928955,2.551418,228,239,251
-2.143733,-0.4984622,2.6043963,158,178,202
-1.9621193,-0.67586946,2.5858617,195,205,223
-2.0602844,-0.38458633,2.5920515,121,135,156
-1.7542131,-0.68595004,3.151827,64,73,89
-1.937722,-0.3509307,2.5771463,42,53,65
-1.5669316,-0.7481935,3.267232,79,100,128
-1.8171823,-0.3163135,2.8505118,50,59,73
-1.4964486,-0.63937354,3.2185988,49,55,62
-1.9338162,0.014045119,2.688586,25,32,42
-1.8426621,-0.06283605,3.0249548,44,53,65
-1.879586,0.15495121,2.5687025,29,43,62
-1.8242598,0.10593891,2.898478,81,92,105
-1.7690628,0.24873197,2.5579658,65,83,110
-1.611713,0.05778718,3.0290656,121,160,210
-1.7720199,0.43838143,2.5524905,81,98,124
-0.2224738,-0.43299532,2.4863677,130,144,164
-1.5428586,0.46709788,2.5362916,93,114,141
-1.1665844,0.36076093,2.5103936,96,118,150
-1.5253482,0.64064395,2.5194836,99,116,143
-1.6213343,-1.5446515,2.5500658,202,203,208
-2.122278,-0.46765733,2.608665,141,158,177
-1.871218,-0.7344918,2.5884495,46,55,67
-1.6688318,-0.82613087,3.2921457,70,76,85
-1.7652712,-0.6288574,2.8511963,20,29,45
-1.9874251,-0.24348533,2.581388,123,136,153
-2.2211473,0.13344073,2.5910954,94,111,140
-1.8158898,-0.29890966,3.0595045,51,60,74
-2.0527608,0.091742516,2.58608,41,55,76
-1.8356164,-0.114010215,2.965125,48,57,71
-1.6151259,-0.27570367,3.086669,140,175,214
-1.8620827,0.15805924,2.5662165,44,58,79
-1.8445559,0.08933401,3.0632155,124,150,184
-1.7929261,0.12629151,3.0375185,193,207,219
-1.8209262,0.39206338,2.559451,69,88,112
-0.3957951,-0.41978407,2.5024295,106,120,140
-0.30779558,-0.31183434,2.4870543,118,133,157
-1.6431582,0.5337857,2.538587,74,94,120
-0.22080785,-0.038184047,2.475042,118,132,154
-1.4318107,0.6311103,2.51436,131,144,168
-2.1019318,-0.5793433,2.6022282,164,179,201
-1.9862304,-0.59703994,2.5984478,132,146,164
-2.1256185,-0.2844162,2.5988693,66,84,106
-2.2853389,0.014988303,2.5979557,74,91,118
-1.7854075,-0.52141905,3.066112,62,67,79
-1.8692634,-0.33215523,2.5762165,98,104,111
-2.2047806,0.13651347,2.5915458,69,87,116
-1.8289995,-0.22736013,2.957624,52,61,75
-1.5572503,-0.44945025,3.1576772,123,162,210
-1.7433312,-0.18378532,3.1184144,176,204,235
-1.8579426,0.07134235,2.7681932,55,68,85
-1.6240026,-0.1151489,3.051468,124,169,219
-1.428023,-0.19799006,3.1045268,66,85,101
-1.6377066,0.061819077,3.0297961,124,167,219
-1.7053775,0.37174666,2.5501275,107,124,151
-0.32290798,-0.31198502,2.4802682,105,121,145
-1.0825385,0.2400701,2.5151772,136,159,192
-1.6179807,0.60493124,2.5325017,89,108,132
-1.4400439,0.6283704,2.5219507,143,156,179
-2.3955903,-0.16377676,2.6293917,84,103,129
-2.3714447,-0.10485041,2.6189408,79,97,128
-1.7844918,-0.8226075,2.5893252,40,46,61
-2.1735845,-0.20269799,2.5983424,57,73,97
-1.7141095,-0.64092326,3.209244,111,138,176
-1.7866993,-0.48653865,2.5761507,43,51,56
-2.1647816,0.026069164,2.5942078,66,83,108
-1.7716978,-0.34665036,3.1443517,125,154,195
-1.9376755,-0.05297041,2.6068428,22,31,39
-1.8131053,-0.16567695,3.1120884,105,127,157
-1.6821038,-0.20572793,3.0844805,122,157,197
-1.8586204,0.03590381,2.9766045,45,55,71
-1.9123988,0.25590777,2.5696926,71,90,114
-1.6487814,0.002780199,3.0348983,125,172,225
-1.5525242,0.010792017,3.0458727,114,153,205
-1.5170583,0.06377947,3.048595,115,150,199
-1.3688793,0.281224,2.5296783,89,114,151
-1.0794171,0.2516036,2.5092268,123,144,180
-1.2216399,0.4271748,2.513634,94,113,138
-2.3756752,-0.31622982,2.6311774,79,98,124
-2.236834,-0.40597057,2.6116424,102,117,140
-1.7612956,-0.8718517,3.044682,16,26,44
-1.7435546,-0.79043436,3.0424895,62,71,87
-2.1652818,-0.22009957,2.5998302,57,75,98
-1.7795126,-0.5662761,2.9816551,65,72,83
-2.074938,-0.15892565,2.5859509,59,74,95
-1.7297139,-0.45765042,3.165742,130,168,216
-1.9184163,-0.15423095,2.580462,35,42,52
-1.5103987,-0.5175967,3.1630049,140,176,198
-2.0652883,0.13813353,2.5807495,121,137,160
-1.4391546,-0.4072168,3.1454992,134,179,229
-1.8554165,0.014554501,3.050991,72,84,105
-2.0038514,0.31461775,2.5723372,82,103,132
-1.7896335,0.09270561,3.0605938,183,207,235
-0.4694882,-0.43992352,2.4979577,101,119,140
-1.6901351,0.35558403,2.5477328,79,101,130
-1.5685285,0.36762774,2.541521,78,100,133
-1.5158253,0.4199332,2.535398,56,78,108
-0.47488773,0.090893745,2.4852028,152,170,199
-0.79017544,0.3383584,2.505939,141,163,196
-1.6497369,-1.290417,2.552544,177,178,187
-2.2297056,-0.33739567,2.6110082,64,80,106
-1.7626579,-0.82546926,2.582638,15,25,41
-1.7347035,-0.6763756,3.200773,84,102,132
-2.1819878,-0.13704479,2.5955389,58,75,100
-1.8007929,-0.4561038,2.573022,83,89,97
-1.8044715,-0.37197542,3.1228712,73,86,110
-1.6412292,-0.4528644,3.1596155,122,162,215
-1.4224157,-0.5667534,3.176541,118,158,211
-1.5891931,-0.33937883,3.1345043,87,106,123
-1.8526707,0.005371809,2.7858593,20,34,52
-1.423844,-0.30186725,3.1403658,112,151,199
-1.9109025,0.2497673,2.5727177,76,96,122
-1.7173584,0.21750975,2.5539727,54,76,106
-1.7057624,0.13535511,3.0067842,237,234,234
0.4400115,-0.7125695,2.5920415,255,254,255
-0.68255055,0.00083494186,2.492989,100,121,151
-0.2865044,-0.01674819,2.4700336,112,129,156
-0.8225907,0.31577992,2.49302,144,166,206
-1.4487695,-1.6409547,2.5780768,100,102,114
-2.1041791,-0.5653024,2.603914,141,160,184
-2.3188086,-0.18491292,2.6182368,47,68,95
-2.318961,-0.107747555,2.6121416,69,87,116
-2.209814,-0.15410995,2.6036906,71,88,114
-2.0145347,-0.27814627,2.586091,66,81,103
-1.7864153,-0.41167355,2.5697834,83,86,88
-1.8157518,-0.31349707,2.9635563,44,57,74
-1.7350755,-0.32726502,3.1484232,147,187,232
-1.8372786,-0.15165472,2.9866705,49,62,79
-1.4008619,-0.43172717,3.1508033,107,148,197
-1.8455746,0.052437782,2.7341425,46,57,72
-1.662595,-0.06828499,3.039494,140,186,237
-1.5058738,-0.09571087,3.0676067,108,146,194
-1.5119803,-0.011674881,3.0560179,107,144,194
-1.5526536,0.26962292,2.5373855,93,119,153
-1.6981809,0.40900433,2.5469296,104,127,161
-1.5414599,0.42764592,2.5325587,107,129,161
-1.403719,0.46052086,2.5262656,68,85,112
-1.5631044,0.59837174,2.5218935,84,105,136
-1.5699124,-1.3241003,2.5488513,186,184,190
-1.9249711,-0.6975403,2.591612,118,132,150
-2.1411161,-0.34599423,2.602342,53,71,98
-2.0338008,-0.3761387,2.58721,155,176,204
-1.9355967,-0.38556838,2.5831378,113,127,147
-1.8003812,-0.42136955,2.5674965,118,122,132
-1.8118815,-0.32389522,2.7188911,40,52,69
-1.8235908,-0.25478005,2.9745407,45,59,77
-1.8254392,-0.15780592,2.8012419,37,49,68
-1.5293195,-0.3397076,3.0846488,51,80,118
-1.9542928,0.13361228,2.578693,61,80,106
-1.7900145,0.11544919,2.5628517,63,82,108
-1.6969241,0.15112936,2.5507662,23,39,64
-1.7121979,0.24353862,2.5565548,70,93,125
-1.8783658,0.39990008,2.5680542,79,102,135
-1.5238708,0.14706159,3.0293834,107,144,198
-0.70484716,0.1746099,2.4883397,111,134,171
-1.5470415,0.55660045,2.5212798,101,123,155
-2.3022656,-0.38969564,2.6288009,93,118,155
-1.9182758,-0.72496605,2.592302,44,59,81
-2.1028695,-0.4190681,2.598997,147,173,205
-1.8766832,-0.5687742,2.5857763,25,39,56
-1.7724874,-0.56440496,2.8165243,33,45,66
-1.7231414,-0.5228462,3.183587,121,163,220
-1.4239062,-0.71303654,3.2607327,87,112,149
-2.0905025,-0.038944006,2.590603,52,73,103
-1.4864026,-0.49167538,3.1658614,124,171,225
-1.8457365,-0.09146404,2.7642996,0,2,21
-1.530537,-0.28420877,3.080744,90,130,181
-1.4479791,-0.26215982,3.1182685,125,175,231
-0.36007947,-0.5872605,2.5024817,87,108,136
-1.8168485,0.12138963,3.0449946,168,191,217
-1.4795799,0.037760854,3.0673018,100,138,192
-0.704253,0.071300745,2.4854205,104,129,163
-0.9867953,0.30779278,2.495955,117,147,191
-1.6322547,0.60404253,2.5259597,90,111,149
-2.330912,-0.34181356,2.6264913,78,102,139
-2.1849253,-0.4024577,2.609064,51,74,107
-2.0253394,-0.4879651,2.5993166,107,128,156
-1.7597308,-0.6491294,2.7360396,31,46,68
-1.758765,-0.5441294,3.171676,80,103,140
-2.2514343,-0.04817152,2.597587,110,133,166
-2.0906034,-0.11237192,2.5895846,51,69,99
-1.7824185,-0.31894398,3.133982,99,131,178
-2.0243657,-0.0056135654,2.5847337,49,70,99
-1.5136651,-0.365407,3.1423,125,168,219
-2.0198295,0.14218998,2.5834262,65,86,114
-1.6096004,-0.12932277,3.0517344,108,158,220
-1.5324506,-0.089009404,3.059437,98,141,200
-1.6443881,0.22512126,2.5485768,74,99,138
-1.8462296,0.4071083,2.5599418,90,117,154
-0.6063087,0.10920513,2.4716172,83,109,144
-1.76559,0.57704556,2.5374393,73,99,133
-1.5812838,0.6431339,2.5218015,109,134,174
-2.0631297,-0.6051183,2.611331,155,179,215
-1.7511458,-0.7410214,3.1137528,54,67,92
-2.2998815,-0.21440446,2.6186795,70,95,133
-2.0264647,-0.392689,2.5930336,143,166,199
-1.7917833,-0.49936247,2.9996166,41,56,78
-1.4155453,-0.7291875,3.270668,50,72,105
-1.886987,-0.27219343,2.5758886,61,76,98
-1.8207605,-0.2727797,2.948401,43,61,84
-1.8451786,-0.15832853,2.7126474,15,28,45
-1.9266248,-0.034870505,2.7089753,83,97,116
-2.04262,0.12496936,2.5831146,87,110,144
-1.8500545,0.0016183853,2.9716487,46,61,85
-1.8659303,0.07894945,2.9794023,62,79,104
-1.7983265,0.09680903,3.0663986,160,196,239
-0.5149293,-0.060820937,2.492334,97,122,160
-1.1931814,0.3092332,2.5133038,90,124,171
-1.8353248,0.588109,2.539179,114,143,184
-1.7029258,0.6875398,2.5206552,113,144,192
-1.7819862,-0.86245775,2.5908077,21,35,55
-1.77262,-0.77540135,2.5869346,7,21,43
-1.7619059,-0.6484802,3.0286639,51,63,86
-1.5797143,-0.71462655,3.248888,89,129,184
-2.108425,-0.24709165,2.5969958,11,31,64
-1.8132422,-0.3999567,2.8319917,42,57,79
-1.6470484,-0.4631946,3.155574,101,147,213
-1.69203,-0.36626673,3.1417294,143,185,241
-1.8259902,-0.19760883,2.9720383,38,55,80
