2.11092,1.3309066,3.106966,192,189,189
1.8049811,0.56176436,3.1172562,92,89,89
2.0209148,1.1424913,3.1101787,253,249,246
1.9680941,1.3849219,3.10858,221,219,220
0.6752871,0.9730836,3.1134582,238,235,237
1.3175237,-0.71158445,3.1234832,125,122,124
2.1128695,0.82484406,3.1141415,211,210,209
1.7096049,0.7337302,3.1164834,99,98,97
0.7061402,0.20445508,3.1118503,189,188,187
1.6872725,1.2134626,3.1068835,96,94,96
1.7135684,1.3607801,3.1098452,149,147,149
1.5096768,1.2955258,3.1103976,161,160,159
2.3244176,0.40162766,3.1189103,49,47,53
2.0231733,0.06475896,3.1263266,149,146,147
1.9467976,0.09995276,3.1272883,158,154,154
2.1258137,0.71035695,3.1195002,113,113,114
1.5832673,0.31940967,3.123773,253,242,240
0.36971635,-0.66956985,3.1008778,133,131,133
0.74456596,0.18383855,3.110751,166,163,163
1.3664459,1.0798944,3.129568,199,196,196
2.0455186,0.44426775,3.1259294,134,132,134
1.7777832,0.5283207,3.121425,124,121,121
1.5327734,0.6145382,3.1202154,241,238,238
0.44991404,-0.20211405,3.1075835,100,94,97
1.9773833,-0.2068026,3.129518,159,155,154
1.6704549,-0.19997919,3.1272693,226,221,219
1.6662424,0.34501347,3.1217618,252,252,246
0.29900783,-1.2847334,3.0957174,238,233,232
0.62703794,-0.31906843,3.1120481,191,184,181
1.7468698,-1.0461338,3.7359967,139,151,170
1.6159358,-0.8263407,3.7712548,15,29,56
1.5125766,-0.7253096,3.6665168,52,57,69
1.5335257,-0.49969876,3.1377435,16,31,51
1.6134343,0.021888435,3.1349342,146,139,138
0.8334398,-2.302052,3.1049538,50,67,94
1.4331443,0.0026621819,3.1281285,252,246,246
1.1051917,-0.4786626,3.1294906,201,194,192
0.44583315,-1.8460358,3.0941784,246,241,238
0.64148253,-1.7965969,3.1079154,194,187,185
0.895493,-1.3770703,3.1176093,199,189,187
1.493638,-0.20501548,3.1362748,255,248,249
1.4088316,-0.15212321,3.1375077,122,115,114
2.1912408,-2.7630577,3.1336071,194,185,185
2.17941,-0.8720474,3.2727795,24,36,55
2.2660384,-0.41990805,3.1514208,87,107,138
1.9025021,-0.7996099,3.5851357,47,57,73
1.7811346,-0.5675614,3.1367736,101,121,148
0.2969252,-1.8609854,3.096446,234,226,223
1.4870336,-0.36861563,3.1481729,249,239,237
2.6497972,-0.7398968,3.14536,190,183,179
1.5546741,-2.672626,3.1085808,232,224,222
2.1823454,-1.0055225,3.6456447,182,193,205
2.5478055,-0.53178513,3.149022,96,118,149
1.8874043,-1.0337176,3.7216825,255,254,255
2.4335785,-0.3037275,3.1449986,245,238,236
2.4251857,-0.14104897,3.1046448,220,212,206
2.1693554,-0.18446237,3.1458535,255,253,251
2.2773218,-0.024415135,3.1380239,170,165,162
2.7356746,-1.1665299,3.1502974,162,155,154
2.894415,-0.7329898,3.148948,233,227,222
1.8484693,-1.2334933,3.7228143,82,97,117
1.9770916,-0.8573972,3.1482198,5,21,38
2.2287946,-0.4836259,3.1401753,51,69,96
2.1975503,-0.34862673,3.1411803,62,79,106
2.5771775,-0.16874373,3.1499977,223,218,213
1.7266946,-2.4175954,3.1279745,234,225,225
1.1685187,-2.7286534,3.1142094,53,69,99
1.6795716,-2.1450238,3.1319854,186,181,179
2.6367097,-1.4536096,3.1524315,193,185,183
2.127575,-1.7784902,3.1544905,172,164,163
2.8365536,-1.5287439,3.1618502,162,155,154
2.777101,-0.38183796,3.1504476,182,177,173
1.6055026,-0.42454588,3.140012,75,88,113
1.8428128,-0.5223497,3.1362705,45,58,83
0.8854472,-0.3723253,3.1193147,178,167,164
3.047451,-0.78478813,3.1422806,215,207,203
2.8298235,-0.7917607,3.1519318,227,224,218
2.4575965,-0.9348532,3.415,47,53,60
2.3749783,-1.0778849,3.6301498,130,144,161
2.3281813,-1.1116513,3.6250591,110,124,142
2.3397431,-1.1717618,3.6332126,92,106,124
2.4462514,-1.2558266,3.464367,66,68,72
2.5700336,-1.4192156,3.1594708,161,155,150
2.4619875,-1.5228597,3.1605833,255,248,242
1.6737745,-1.091675,3.7547274,105,115,126
2.6682749,-1.7906631,3.1630468,186,180,176
2.2699962,-1.6897699,3.159943,181,175,170
2.263914,-1.7855722,3.157607,157,152,150
2.0162106,-1.7214042,3.1496835,249,241,236
1.8112838,-1.7244908,3.1506624,255,251,248
2.2192302,0.40966752,3.1226425,165,159,154
2.1675065,0.12620956,3.1224093,167,161,156
2.4216614,-1.0877596,3.624841,105,118,135
2.6407022,-1.6828398,3.147562,182,175,173
2.3012695,-1.3296691,3.3854885,82,91,97
2.3190908,-1.5953864,3.162497,170,162,158
2.0810363,-1.3355843,3.6566944,97,103,110
1.90028,-1.4830469,3.1548448,255,247,243
1.7957585,-1.8402735,3.153822,187,180,178
1.4016244,-1.4764074,3.1511178,158,150,148
2.6446025,-1.3820359,3.1534252,19,33,52
2.3699803,-1.1507409,3.6152527,90,103,126
2.2529278,-1.652387,3.160308,146,140,135
2.059936,-1.0478032,3.6607258,105,118,135
1.9693711,-1.5860926,3.1561654,138,131,127
1.9639819,-1.2657943,3.7183876,106,116,133
1.9253064,-1.2803763,3.186195,145,135,125
1.9239959,-1.1036098,3.7217267,106,116,128
1.8002741,-1.5926417,3.1516004,143,135,131
1.7267832,-1.7066973,3.1573753,176,170,164
1.7096658,-1.3159624,3.635548,102,110,116
1.593133,-1.0758755,3.825145,132,139,150
1.3608935,0.40939456,3.1083434,203,195,190
1.1000749,-0.59419596,3.1588216,182,174,170
1.9931123,-1.7850782,3.1479254,255,253,250
1.8397567,-1.3015255,3.7263434,138,152,164
1.6225765,-1.2406186,3.7850544,7,31,62
1.9277315,0.5353171,3.1302466,226,218,214
0.9469591,-1.1519548,3.1430333,157,150,148
1.9495122,-1.2636325,3.7206442,117,126,139
2.621214,0.4034139,3.114277,196,190,181
1.1286709,-1.0143055,3.145093,12,27,47
1.4837666,-1.7152518,3.1482115,181,174,172
1.4027798,-1.2989451,3.149127,174,164,154
0.92645884,-1.2665242,3.125265,0,14,36
1.2466044,-0.40930808,3.1441784,62,74,95
2.004547,-1.6828197,3.153337,153,149,145
2.244769,-1.5167555,3.147991,171,163,159
2.2690032,-1.4216803,3.1456046,187,178,174
1.4725077,-1.5299555,3.1422434,212,204,200
1.6216588,-1.4416164,3.141944,159,153,148
1.4035232,-1.315498,3.6100652,111,117,122
2.286924,-1.2515932,3.676825,133,135,140
2.5826254,-1.5407742,3.1514878,219,212,210
1.4911292,-1.6414307,3.1416163,130,123,121
1.3775582,-1.4616717,3.138649,161,155,148
1.7588117,-1.2587734,3.751954,96,106,122
2.3919086,-0.9298321,3.6522934,116,130,150
1.6492035,-0.97819114,3.7718487,92,104,119
3.159471,-0.69849575,3.14625,197,189,184
1.1894994,-1.0310411,3.1380422,99,91,88
1.7368841,-1.2030663,3.74479,42,52,70
1.055479,-1.3643051,3.1306183,188,183,181
2.7528076,-0.4865917,3.1348047,246,238,235
1.6715143,-0.9136952,3.7570558,91,105,122
1.8216472,-1.1675935,3.7297916,117,132,152
2.6218195,-0.10566175,3.137257,199,189,188
2.4885433,-0.4216478,3.1453767,45,62,87
2.7305012,-0.69531643,3.1478953,200,193,184
1.8756249,-1.0294937,3.7393813,99,113,133
1.3133614,-1.2060623,3.1535134,178,171,162
1.4848714,-1.2874573,3.854722,144,153,165
1.5649111,-0.4035195,3.141744,0,8,28
2.8542314,-0.1893192,3.131771,220,210,207
2.9782467,-0.38942456,3.125049,194,186,180
2.1047878,-0.86683035,3.7007914,108,118,134
1.7229486,-1.038192,3.7461755,103,117,137
1.0944185,-1.2215445,3.1387987,153,147,142
1.5361547,-1.3895098,3.1548367,92,96,99
1.0393376,-1.3596841,3.139923,255,254,251
2.6696281,-1.6449882,3.1510124,209,203,198
1.1472178,-1.2907833,3.1341717,135,128,127
1.3946183,-1.0550172,3.7782638,72,78,85
1.3468564,-0.6221621,3.139839,143,135,129
0.984312,-0.31839526,3.1312788,136,131,129
1.3825316,-1.0639628,3.4876146,67,75,81
1.0673006,-0.54346395,3.1342134,110,106,103
0.9946227,-1.3469554,3.128738,153,146,145
1.3990355,-0.7879902,3.6762521,74,79,91
2.0654507,-0.15604573,3.1369557,235,226,220
1.3813635,-1.2534801,3.6821086,79,86,97
0.91371804,-0.7306764,3.1372175,255,254,252
3.2046149,-1.4487721,3.1344275,195,189,184
2.7429218,-1.6553842,3.148752,227,217,216
1.0438403,-1.8487681,3.1260085,255,248,246
3.0921783,-1.6649436,3.1453729,151,145,138
2.903568,-1.5549971,3.1487577,194,189,184
1.0464333,-1.6687278,3.134712,122,114,111
2.366323,-2.3648086,3.1474786,103,98,95
1.3672967,-2.3541164,3.1349745,18,34,58
1.7684822,-1.430729,3.1512833,222,216,218
1.678647,-1.8744711,3.1463954,185,180,178
1.1066437,-2.101276,3.1351533,10,31,54
1.1452943,-2.7708025,3.125203,26,43,68
1.5286119,-1.9660095,3.1429696,124,119,117
1.1967496,-2.5039554,3.1334615,10,29,52
1.9458559,-2.0064363,3.1521482,244,238,241
1.4009284,-2.1972237,3.1439424,21,40,66
1.077892,-2.5721817,3.1327436,22,43,71
0.63525856,-2.6302915,3.1155505,216,211,207
1.8798723,-3.8419456,3.1281948,168,162,163
1.079957,-2.9965143,3.9211736,100,85,81
0.7981847,-2.2853923,3.130961,37,54,80
1.4056029,-4.204205,3.109672,175,169,171
1.0312659,-2.9645443,3.5892005,111,95,89
0.76105595,-2.7105846,3.1227648,28,47,73
0.4450695,-2.596519,3.1122699,252,244,242
1.4351903,-3.1062374,3.1340325,146,142,139
1.1525611,-3.000649,3.128983,37,58,85
1.1314175,-2.6504507,3.1368132,40,61,90
1.0188075,-2.6489196,3.1319785,33,52,76
0.8480415,-2.8628006,3.6414988,65,53,48
0.9437564,-2.907239,4.012802,67,55,50
1.098943,-3.0210028,3.7135003,90,74,66
1.3810196,-3.0425801,3.1414165,134,128,123
1.018432,-3.154704,4.184989,88,75,76
1.1853447,-3.0296268,4.091652,93,77,70
1.1178722,-3.027772,4.0058303,83,67,59
1.3314557,-2.9000955,3.1391778,154,144,137
1.0255002,-2.9705043,3.4883504,61,47,40
1.4177673,-2.760014,3.1492577,212,202,199
1.2214073,-2.812284,3.1352036,23,39,63
0.9183932,-2.981104,4.1510234,170,137,113
1.0336101,-2.9760904,3.8345613,73,58,54
1.0838643,-3.0131302,3.4796948,60,48,43
1.0826842,-3.0127778,4.0069942,93,77,69
1.0139705,-2.971776,3.273958,45,38,39
0.7494225,-2.922595,4.152196,28,26,32
0.8960988,-2.6761632,3.1157012,13,32,55
0.14597803,-2.2525353,3.096963,211,203,197
1.5565134,-2.6581802,3.148769,174,168,163
1.2984978,-3.839251,3.1183012,184,175,169
0.59255344,-3.9072847,3.100153,191,181,173
0.8388052,-3.8235807,3.1068652,190,178,172
1.3335894,-3.7500901,3.1254063,214,207,200
0.025443554,-3.6947856,3.0893002,215,204,194
1.5638655,-2.7700992,3.1483748,255,248,241
1.482959,-2.759624,3.1334114,189,184,179
0.8086064,-1.949732,3.1132138,196,188,184
1.5878112,-3.0547094,3.1430354,148,142,137
0.58568823,-1.8227204,3.1157694,208,200,194
1.045217,-2.7103333,3.1150343,13,30,54
0.6450729,-2.1609178,3.1001763,255,252,245
1.1576998,-3.2004533,3.4530568,105,93,86
1.0717819,-3.2912931,3.3392992,78,64,54
1.0594704,-3.375081,3.1129427,162,154,149
1.0245585,-3.3959303,3.229714,64,56,54
1.0309734,-3.439055,3.9382772,52,41,40
0.89386374,-3.498538,3.7927053,170,133,100
0.6937579,-3.4723964,3.1145897,210,200,192
0.54608977,-3.338254,3.3516862,96,105,119
0.5116888,-3.5536466,3.113914,179,173,166
0.561329,-3.896882,3.1073165,126,123,119
-0.38163292,-1.9283797,3.0743408,175,168,166
1.5886259,-3.346499,3.1382122,34,50,75
1.4930398,-2.501935,3.138763,143,145,149
1.0640256,-3.5512533,3.125815,28,38,55
0.93909305,-3.4765263,3.3002698,30,21,21
0.86554897,-3.483379,3.570982,144,106,74
0.79468733,-3.7234626,3.1181097,31,43,64
0.7388674,-3.858511,3.0983648,0,9,33
0.8647659,-3.1676893,4.1898537,158,131,123
0.54784226,-3.4402537,3.1125588,203,193,185
0.5861676,-3.3972125,4.0886855,160,125,101
0.3633551,-3.1004658,3.1148677,240,233,232
0.4731111,-2.4291487,3.3513422,252,245,243
1.103222,-3.8864384,3.1205974,213,206,204
0.8351915,-3.7366018,3.109359,178,172,165
0.88201654,-3.3795533,4.179491,172,135,110
0.644673,-3.355328,3.5134187,144,111,83
0.5515224,-3.2960768,3.7212481,129,97,73
0.77919537,-2.9979124,4.170107,146,122,115
0.4851063,-3.219739,4.1505146,202,166,145
0.23008329,-2.989544,3.1107078,18,28,47
1.2273483,-3.870717,3.124833,231,224,222
1.8049468,-3.520739,3.1290984,154,149,146
0.4688229,-3.6713114,3.113058,156,148,142
0.6391107,-3.3647919,3.7685852,143,112,87
0.55288863,-3.294734,3.8192823,145,112,84
0.4993832,-3.238205,3.935694,104,80,61
0.5098704,-3.1997242,3.7954466,106,89,77
0.5907426,-3.1180553,3.441654,92,82,74
0.60460424,-3.1282692,4.151815,154,121,103
0.36014825,-3.0924835,3.110289,160,152,148
0.31221133,-2.996088,3.1164346,158,151,149
0.66478723,-2.9073186,3.9518433,88,77,74
0.7303356,-2.4884567,3.1234257,169,164,162
0.38485384,-3.6178675,3.1053395,177,170,168
0.12747175,-3.3170156,3.096962,158,151,149
0.2614323,-3.0622292,3.1125302,162,157,155
0.69090825,-2.908381,3.752044,81,71,65
1.0546052,-2.4406915,3.1413136,37,54,80
1.0524857,-3.9123468,3.1038384,211,206,202
0.49397814,-3.048358,4.129004,48,33,30
1.5794563,-2.9499593,3.147089,193,186,184
0.59972686,-3.8674188,3.1355119,144,138,133
0.5347856,-3.0972314,3.1241345,63,77,97
0.88891506,-2.8177652,3.2056289,22,37,62
2.105549,-2.7524853,3.1522114,159,153,155
0.5543364,-3.0645843,3.9663906,81,67,60
0.84375584,-2.9846091,4.163221,175,146,131
2.3031023,-3.418262,3.146967,190,185,186
0.33289385,-3.0219088,3.1169791,165,157,155
0.73710686,-2.8675876,3.6963737,87,75,70
1.0083342,-2.4484034,3.1551833,34,53,79
0.5035324,-4.033611,3.0938315,142,134,128
0.7100937,-2.8215218,4.1504755,52,45,46
1.1088881,-2.9426908,3.140265,20,35,56
1.4206377,-2.8242092,3.1436415,255,251,250
0.22727174,-3.9758759,3.0926256,136,130,125
0.6952462,-2.9326148,4.155751,223,207,199
0.71270204,-2.774249,3.126793,38,50,71
0.8062153,-2.8502555,3.7915885,87,75,68
0.90984905,-2.8900228,4.1501584,43,35,38
1.0546144,-2.9648514,4.071431,29,20,20
1.1523967,-3.1210833,4.163001,182,156,149
1.6648183,-4.401192,3.1153855,220,209,204
0.34891927,-2.9001927,3.1203656,151,143,134
0.39800406,-2.7767334,3.1245713,167,160,151
0.73178685,-2.806694,4.106455,35,40,53
-0.1605823,-3.4076982,3.091525,145,135,127
0.7092633,-2.949296,4.162756,171,139,117
0.9075117,-2.8851843,3.897399,63,48,44
0.95636,-2.915853,3.7287612,61,46,42
0.79028654,-2.9228816,4.165319,183,153,134
0.2058773,-3.1433525,3.1125054,191,180,178
0.6953956,-2.6608844,3.12848,210,203,202
0.8464744,-2.8924303,4.159897,199,182,172
0.9400201,-2.7719045,3.1320415,43,64,93
0.22227764,-3.1302667,3.1020417,179,172,169
1.473028,-2.61944,3.1469417,236,233,232
0.90217125,-2.9932218,4.1678047,229,219,218
0.81954,-2.7701645,3.1659768,15,28,52
0.5623553,-2.9625711,4.1538024,41,32,36
1.0372062,-3.1054735,4.15888,45,40,51
0.9791692,-2.9210458,4.1373653,55,46,50
1.4180013,-2.911479,3.1328194,189,178,175
0.10892111,-2.86442,3.1154702,188,181,172
0.008908212,-3.3081079,3.1018124,203,193,183
0.33998877,-2.947608,3.1147718,194,186,181
0.5054097,-2.9788465,4.1077914,48,42,44
0.3647694,-5.143306,3.3218346,212,209,207
0.6070844,-3.0165725,4.1545267,167,135,114
-0.16691148,-3.1681352,3.103095,189,180,173
0.06287974,-3.4990778,3.0935266,194,187,178
0.42727083,-3.5299373,3.108069,201,189,175
0.67214555,-4.162329,3.100328,133,122,118
0.10484719,-4.817286,3.2631326,209,209,209
0.27130812,-3.4239259,3.1038523,149,139,131
-0.98585427,-4.3066015,3.6234894,173,180,188
-1.0897114,-3.8011312,3.5386837,100,108,128
-1.8785627,-3.8149743,3.731948,43,63,99
-0.530036,-4.2010345,3.2768226,126,131,142
-1.3713655,-4.11726,3.6857703,209,213,223
-0.3930353,-2.598785,3.0935056,171,163,159
-0.7029208,-4.2697163,3.4460268,53,66,92
-0.37873542,-2.977075,3.090997,116,110,104
-0.83016384,-2.6906905,3.0812166,149,140,134
-1.101546,-4.244761,3.6442146,204,209,218
-1.6480739,-4.0016756,3.7163286,51,73,113
-1.1116266,-3.0036416,3.106038,40,46,55
-2.3736403,-3.0699768,3.5798473,216,220,230
-0.36274076,-3.1151385,3.0920033,221,212,205
-0.6361221,-3.1466646,3.0836968,138,129,122
-1.4690161,-3.3111968,3.4202812,67,81,107
-0.76375663,-2.7439966,3.083415,188,176,170
-2.097934,-3.9219089,3.8010643,70,92,133
-1.1506665,-3.2530298,3.21488,201,201,202
-0.6730385,-3.167603,3.0834467,129,121,119
-0.5934478,-2.8469086,3.0960193,159,153,146
-0.9387338,-2.917583,3.0791483,121,112,105
-1.860352,-3.2401948,3.532245,94,114,149
-2.185304,-3.28337,3.6013281,140,153,177
-1.5458124,-3.2267547,3.4111114,58,74,104
-1.6197195,-3.1322207,3.3935614,70,88,121
-1.9832239,-2.8208208,3.3682628,90,104,132
-1.4526417,-2.2521067,3.069267,133,123,115
-1.6645014,-2.098177,3.0655727,202,192,184
-2.6652048,-2.4522853,3.4964674,222,228,234
-1.6810725,-2.4405885,3.0623953,114,107,106
-1.0084152,-2.0594134,3.0846403,155,147,141
-1.3250093,-2.2927814,3.0693493,129,122,115
-0.94433343,-2.2126265,3.086185,175,169,164
-1.674401,-2.711903,3.0740013,40,53,70
-1.2192955,-2.4018588,3.0809984,148,139,133
-1.1641331,-2.2717996,3.0841827,121,114,111
-1.1567745,-2.1387787,3.0860865,47,36,30
-1.9146366,-2.9053407,3.3989205,204,212,232
-1.9147787,-2.7806268,3.3083913,70,84,113
-2.0349038,-2.64264,3.2857437,76,87,113
-1.0972741,-2.0082402,3.0735679,164,157,150
-2.4963639,-2.4897332,3.45619,182,189,198
-1.9914482,-1.7298466,3.0636778,136,119,108
-2.2897902,-1.2836336,3.0571775,202,194,190
-1.9008148,-2.31501,3.0674014,185,162,179
-1.4865944,-1.2907959,3.0785356,44,57,74
-2.725904,-1.3918587,3.0742035,3,4,15
-1.5628579,-1.7002577,3.5038424,88,101,127
-2.2017815,-1.5843996,3.0617392,180,172,170
-1.7413604,-2.6968613,3.1232219,65,84,118
-1.1329753,-1.250841,3.0881429,179,169,159
-2.687358,-1.4403747,3.0523815,10,17,28
-0.76488495,-1.2994906,3.0956645,188,180,174
-2.1868715,-1.4927739,3.057664,151,141,133
-0.9933871,-1.8770913,3.0824256,208,198,190
-1.4852614,-1.5245091,3.4583814,4,16,39
-2.0878417,-1.1137168,3.0623252,178,169,163
-0.7519369,-1.5523008,3.096826,131,123,119
-1.8452101,-1.3495468,3.0618157,166,156,148
-1.251585,-2.1431499,3.0743065,150,139,134
-1.3899398,-1.6145359,3.4921916,13,23,42
-0.98073447,-1.1731204,3.091106,136,128,124
-2.015327,-2.1987681,3.0576797,77,64,64
-0.90026104,-1.585579,3.0870454,157,149,145
-1.1865554,-1.152197,3.082388,172,163,157
-1.5921094,-2.0194106,3.0678554,160,148,140
-0.78616023,-1.6988643,3.0870633,239,232,225
-1.4902852,-1.0166703,3.0727687,150,137,131
-1.9980555,-2.0025406,3.0629873,160,150,142
-2.3820524,-1.1928556,3.0527105,193,184,177
-0.6992886,-1.6927513,3.0942907,183,175,170
-1.1001518,-2.3569174,3.0877092,163,157,150
-2.0752313,-1.259576,3.0606415,191,181,171
-0.89685106,-1.8378774,3.0920873,170,162,152
-0.8018471,-1.8071567,3.0948248,171,164,164
-0.7132535,-1.746617,3.0997102,131,128,127
-2.9943295,-1.1121998,3.1602356,98,115,150
-2.8054938,-0.8829529,3.0508375,125,119,122
-2.6969147,-0.23547465,3.0522938,54,64,79
-1.4713457,-2.1760378,3.0821688,246,238,233
-1.7892423,-1.3848664,3.0727901,225,219,212
-2.5274816,-0.4902184,3.0510678,147,145,150
-1.5674107,-2.1061373,3.0777102,132,125,118
-1.1741922,-0.6972399,3.081509,216,210,205
-0.90285206,-1.4664506,3.0969424,22,38,62
-2.1776474,-0.3775009,3.0623608,153,150,150
-1.7065189,-0.0063429475,3.0689237,223,216,213
-1.0688636,-0.25796378,3.0828342,219,214,212
-1.1260026,-2.0601578,3.0856924,214,206,201
-1.79703,-1.584994,3.0668576,167,156,153
-1.3928671,-0.5845859,3.0750737,166,163,157
-1.3647668,-1.7518443,3.4529567,7,22,46
-0.9620334,-1.4062494,3.0779161,174,169,166
-1.832006,-1.8281661,3.067235,124,116,110
-1.8890862,-0.42631006,3.057979,213,205,201
-1.6338096,-1.9360467,3.0769625,25,37,60
-1.5816307,-1.8286029,3.2945108,92,96,104
-1.5397077,-1.6812135,3.2938876,5,14,28
-1.4280303,-1.692777,3.1636014,6,15,29
-1.3739135,-1.9649078,3.070942,49,68,93
-2.0177183,0.04375738,3.0515797,167,164,166
-1.6292198,-0.65022933,3.0662513,216,208,203
-1.511374,-1.7101249,3.0613267,31,46,67
-1.2901692,-1.8958052,3.070457,46,66,91
-1.9372365,-1.6978577,3.0619452,252,244,240
-1.6692963,-1.8388427,3.0666633,184,177,167
-0.8222233,-0.8087286,3.0947986,195,190,187
-1.8317099,-0.5427469,3.0695877,225,218,216
-1.3255632,-0.5154773,3.0902953,176,170,165
-1.6188915,-1.9084603,3.0705814,210,199,190
-0.75639117,-1.5416638,3.096552,162,155,154
-1.9051802,-1.3631824,3.078389,255,253,251
-1.8640449,-1.5214065,3.073747,44,54,71
-1.7282987,-1.5975684,3.0733871,232,220,213
-1.6813197,-1.9459351,3.0734477,179,171,166
-1.3630083,-2.0577855,3.0728567,182,174,170
-1.3618479,-0.95427144,3.0843768,161,153,151
-1.943995,-1.203706,3.0836565,28,41,65
-2.0730948,-1.2584245,3.078882,147,140,139
-0.6475396,-0.9722847,3.0944047,206,199,198
-1.112858,-1.3103403,3.0805993,221,214,212
-1.650238,-1.5844764,3.1695619,48,52,55
-0.32936442,-2.4490805,3.086705,186,181,179
-2.2272592,-1.7930645,3.084577,34,22,25
-1.707439,-1.0779603,3.080309,121,116,112
-1.8595636,-2.034389,3.0652509,184,177,174
-1.9904008,-1.9095722,3.0678787,219,212,210
-1.9677358,-0.82896316,3.0782962,181,175,171
-1.2320588,-1.2575781,3.0852623,239,229,222
-0.87192833,-1.6333827,3.0937288,170,165,162
-1.8635969,-0.5613234,3.0765219,193,185,181
-2.1301622,-0.97577906,3.0712237,145,140,136
-1.9277925,-1.3448402,3.070149,129,123,119
-2.2737067,-0.61028516,3.0729334,35,47,67
-1.3788278,-0.4525969,3.0920358,160,154,149
-1.8674803,-1.3343354,3.074242,97,92,88
-2.5166957,-0.9069005,3.0614471,127,119,115
-1.8948262,0.13405019,3.0826054,28,40,61
-1.8692992,-0.45803654,3.0747905,25,39,59
-2.7983716,0.32932845,3.0636158,65,75,94
-2.4398918,-0.94903517,3.0702567,174,161,148
-2.132076,-0.16407615,3.0770998,40,54,73
-2.7635005,-1.0826371,3.0581298,75,69,70
-2.7981791,0.201415,3.061185,63,73,88
-1.9151175,-0.6093364,3.079812,226,216,206
-3.0094144,-0.5371288,3.0557046,244,235,231
-3.3062885,0.25782347,3.0521207,123,119,123
-2.6053867,0.17680943,3.0648386,69,77,96
-2.5309467,-0.9932548,3.0633025,114,108,103
-3.2210786,-0.16584718,3.0533195,196,194,205
-2.5062344,-0.24404007,3.0668433,158,153,150
-1.6538911,-0.3938688,3.090644,197,186,181
-3.3696296,-0.40349865,3.0609896,6,1,6
-1.8441255,-0.6338768,3.0783114,191,182,176
-2.0787547,-1.3086723,3.0666862,155,147,143
-2.3933766,-0.62281597,3.0661283,138,132,127
-1.5138152,-0.4152162,3.0939622,206,198,193
-1.9112363,-0.9621998,3.073287,217,209,205
-1.7539644,-0.5083654,3.0830257,174,168,164
-2.329937,-1.2001759,3.0601764,139,131,128
-2.1055274,-0.7313583,3.068252,173,162,149
-3.2598274,0.44838062,3.046812,129,131,137
-2.3807418,0.47047138,3.0708213,197,193,193
-1.9357429,-0.94096243,3.0758796,160,151,145
-2.4743176,-0.18643606,3.0593255,30,43,58
-2.582689,0.5909105,3.0680075,252,245,243
-2.3830373,-0.7184832,3.0637476,255,252,252
-2.3000536,-0.15611136,3.07054,60,66,73
-1.5217769,-0.1582284,3.093886,121,113,108
-1.9767461,1.1152143,3.0902195,150,152,156
-2.190652,0.0057085752,3.0706816,180,172,169
-1.3323326,-0.058998168,3.0994804,182,174,168
-2.1760151,1.8212943,3.0836217,228,221,220
-2.1563132,0.1419369,3.0744376,134,132,134
-2.3398666,1.1434084,3.0867717,76,80,87
-1.8949258,1.5375915,3.1014576,241,233,229
-2.14647,0.2530739,3.0779161,114,112,115
-1.9071395,0.7453194,3.1587937,69,72,80
-2.0300562,1.5836642,3.0914755,212,204,199
-3.5596082,0.9398078,3.0503254,81,83,89
-2.7387347,1.2410178,3.0732422,120,116,121
-1.2566979,0.8927025,3.1094556,249,241,239
-1.6663978,0.14475179,3.0922575,153,140,134
-1.5540748,0.6570844,3.1001153,29,38,52
-1.3653872,-0.23901433,3.091043,214,203,199
-3.0893047,0.4692351,3.0544562,160,166,174
-1.3783364,0.673997,3.1027467,231,224,214
-2.6540878,-0.28289318,3.0539155,71,78,89
-1.7330432,0.25992775,3.0870671,167,157,149
-2.9232147,0.8234688,3.0687027,150,151,155
-2.2381494,1.1574546,3.0946217,149,145,149
-1.289633,0.26252207,3.1066883,168,160,154
-1.7449505,0.57053614,3.334919,128,0,15
-1.5287898,0.985482,3.1026692,189,183,178
-0.98414266,0.24648249,3.101202,164,156,154
-1.2467253,0.5511868,3.103268,168,159,152
-2.4418135,0.1896776,3.0710711,199,192,190
-2.938031,0.18715715,3.0563645,168,162,163
-2.765327,0.57417965,3.0632236,152,154,160
-0.97244906,0.6240271,3.1048315,162,154,152
-1.1677485,0.567564,3.1071966,196,185,182
-1.5398433,0.57393724,3.2875495,180,160,166
-1.598897,0.41849446,3.3522747,72,95,93
-2.4584622,-0.8934467,3.0567746,248,240,236
-1.8938267,0.56916296,3.2206442,18,20,26
-1.7894311,1.1326814,3.1019354,144,139,137
-2.2271674,0.69717515,3.0796611,190,185,183
-2.560963,0.25395736,3.0613537,58,68,88
-2.312136,0.965596,3.0837717,110,113,121
-0.9262202,-0.67523956,3.0846567,189,181,177
-1.2694795,1.143239,3.1091647,255,250,247
-1.3836534,-1.2701066,3.054582,111,103,98
-1.7620342,0.9749993,3.100263,229,223,224
-2.00326,1.2544152,3.1016798,117,114,116
-2.1957471,0.92033714,3.0920382,151,148,149
-2.2661638,0.46125275,3.074348,95,100,111
-2.5084696,-0.43231463,3.055091,213,205,203
-0.88989806,-0.005321324,3.091373,166,159,157
-1.5976708,0.99917483,3.1025043,114,109,106
-1.6646485,1.0657269,3.0972047,193,185,179
-0.80202174,-0.4748367,3.084613,138,133,129
-2.0242114,0.9596196,3.087758,114,113,112
-2.0676095,0.5090963,3.0789738,107,103,103
-2.449089,0.75051844,3.0844982,127,128,132
-1.5794799,1.1336381,3.0983076,171,162,159
-2.1019096,1.0327405,3.0950384,167,167,169
-2.3865569,0.86235225,3.0898352,129,131,135
-2.1547925,0.10315317,3.0763326,148,141,139
-0.2571361,0.3856998,3.1027899,179,172,172
-2.1893008,0.89898664,3.0867748,102,104,107
-1.9228256,0.241858,3.078437,149,142,143
-2.5824583,0.30854583,3.0724607,53,62,76
-1.1308973,0.79732835,3.0980055,236,229,226
-1.8606069,0.5637826,3.2144675,0,1,4
-0.8444947,-0.17988873,3.0934947,205,198,195
-1.6765947,-0.27909654,3.0826247,199,188,185
-1.2181492,0.8718016,3.0956128,222,213,208
-2.1824625,0.5627595,3.0829368,69,72,74
-1.5968432,0.081068814,3.0906773,255,245,239
-1.7250385,1.2709489,3.0989206,251,242,238
-1.6459801,0.8446026,3.0941262,27,40,57
-2.4986966,0.3774563,3.08198,42,56,76
-2.1496682,0.0507589,3.080466,166,159,156
-2.4381402,0.8818828,3.086613,159,155,155
-1.9898341,0.59897065,3.1914592,19,24,35
-0.3843168,0.5014268,3.102888,191,186,182
-1.5483828,-0.050230384,3.0883634,199,188,185
-2.4151697,0.7028904,3.0850577,75,79,90
-1.6672955,0.58285135,3.3631496,76,74,84
-2.100674,0.087466896,3.0851135,183,174,168
-2.0016582,-0.18702036,3.0816276,212,205,203
-1.1238298,1.9780644,3.1012287,192,184,182
-0.9221972,1.4854348,3.1044896,218,211,204
-0.8418771,0.83090395,3.1090662,154,149,145
-1.7318919,-0.22623968,3.0867944,178,168,160
-2.243388,0.39786488,3.0828183,31,46,68
-1.7977378,0.32995218,3.3565083,251,252,253
-1.8775625,-0.22408849,3.0860672,176,165,161
-2.533504,0.37925446,3.0716617,73,80,96
-1.6858313,1.8150005,3.0960407,255,248,246
-1.8956985,0.07644409,3.091732,43,58,78
-1.1600869,0.76783055,3.1045938,197,189,184
-2.4002783,-0.0050159097,3.0798507,91,95,106
-2.012275,0.5303497,3.3272483,18,24,38
-1.4954114,1.2196317,3.1080482,176,168,162
-0.9332652,1.9804299,3.1092486,164,157,156
-2.398622,0.67689025,3.0849504,117,119,127
-1.9917488,1.5503621,3.0968072,234,226,220
-1.4647353,-0.059989512,3.1076646,209,203,197
-2.2799718,-0.08440918,3.0817983,152,145,146
-1.8834453,-0.0071237683,3.0928373,205,199,192
-1.5677645,0.4707072,3.319123,83,95,80
-1.435101,2.0185513,3.1089973,188,183,180
-2.3805897,0.4456285,3.08138,148,146,150
-2.3405635,1.3586644,3.090502,175,170,168
-1.2594812,0.1701029,3.110373,222,214,209
-2.155592,-0.108130455,3.077374,59,55,59
-1.6634617,0.015817046,3.0956016,110,106,106
-2.249662,1.2936368,3.09002,112,112,117
-0.94680095,0.31705156,3.106632,243,238,235
-2.092197,0.13149577,3.0804415,213,202,189
-2.6920516,1.0854654,3.0760436,62,71,85
-1.4791026,0.7973155,3.1078727,38,51,69
-2.2628288,0.041196823,3.113461,162,159,161
-1.2133718,0.06458676,3.098244,144,139,135
-1.694541,0.794373,3.1008909,20,33,50
-1.9196784,-0.20645624,3.0956526,135,128,129
-3.4253366,0.5759867,3.045646,45,57,70
-1.5763578,0.56938934,3.3483224,46,55,44
-2.2622576,1.1869404,3.0926232,173,170,171
-0.9390489,0.79686755,3.1143103,122,117,114
-2.3838224,0.25476858,3.0739775,116,118,122
-2.5110047,0.74220455,3.0787387,137,136,135
-2.026281,0.96175236,3.0902514,129,127,131
-1.578887,1.0482244,3.1084297,230,223,215
-2.7387915,1.8345317,3.0854988,187,179,174
-2.0209486,1.7202194,3.103663,145,139,133
-1.6380105,0.36432898,3.1044917,192,189,183
-2.3060951,0.72132057,3.0834723,123,122,120
-1.4468184,0.9505766,3.106906,87,79,75
-1.6543448,1.2136835,3.1072707,240,232,226
-3.0165913,1.3496164,3.0804296,144,142,146
-1.5929809,-0.18901742,3.0799196,206,196,190
-1.0404975,0.29223964,3.1091807,177,169,166
-2.644828,-0.85524,3.0417361,190,182,178
-2.717382,-0.56416357,3.045833,182,175,173
-1.4867682,0.4309467,3.0877223,204,197,188
-1.2091784,0.5624011,3.0991468,170,164,159
-1.4451401,-0.049342394,3.0838475,165,155,148
-0.9399371,0.5302043,3.1015682,201,196,192
-2.5484266,0.744742,3.075138,166,161,162
-2.2483416,0.9830693,3.0890095,110,107,109
-1.8328152,1.348968,3.1049275,188,180,174
-1.9969366,1.3590224,3.0983133,210,200,194
-2.6737356,1.4485021,2.963083,77,78,87
-2.4006693,1.6540866,3.1008859,161,151,145
-2.3682637,1.8225695,3.0925906,155,147,141
-1.3007371,1.0491843,3.1087255,151,145,145
-2.29822,0.68606246,3.0790026,148,138,140
-1.5327377,1.2601626,3.105115,152,145,143
-1.7727082,1.5135744,3.1062248,163,155,151
-2.305468,1.7551271,3.091844,145,138,131
-2.3128843,2.0883832,3.0975323,140,134,127
-3.3556798,2.5394332,3.0679753,210,205,203
-1.7287273,1.6619852,3.1103673,107,105,107
-1.8833737,2.0266795,3.1084077,172,171,170
-2.2389567,2.3879716,3.1029835,88,83,84
-2.2176893,1.4307637,3.0966344,60,56,60
-2.2592332,1.8594899,3.0961876,163,159,156
-2.3563817,2.2701492,3.3865795,73,74,79
-3.3467386,2.488275,3.080494,255,254,252
-2.545841,1.2631607,3.089625,147,140,141
-3.046416,1.4050852,3.0742884,192,188,188
-1.9092667,2.2984118,3.1180186,142,140,142
-2.8411515,2.287403,3.0906386,93,86,86
-2.4652665,2.6936674,3.1050196,158,154,154
-1.9446559,1.780332,3.1085129,165,159,160
-2.260282,1.9523249,3.100178,251,242,242
-2.2052479,2.4441495,3.1059728,166,161,159
-2.2901223,2.5599906,3.1092658,15,31,53
-2.405291,2.479256,3.103086,0,11,32
-2.097729,2.6585383,3.1150336,209,203,205
-2.882139,1.6783745,3.078273,154,148,149
-2.3068917,2.4091067,3.1014063,11,25,45
-2.5434976,2.333571,3.1215427,135,139,144
-2.2671454,2.8858886,3.1035156,40,37,39
-2.393304,2.5889523,3.1041965,23,37,57
-2.8036833,1.9492213,3.0879273,239,233,229
-2.7225027,2.466539,3.0952325,120,115,113
-3.2997844,1.2316492,3.059815,169,168,167
-1.5709257,1.5978296,3.120151,124,122,127
-1.958926,2.3064847,3.110024,131,126,128
-2.2896502,2.8025713,3.1103742,188,182,178
-2.285316,1.4048421,3.0886154,192,185,182
-2.68896,1.9196175,3.0934827,217,209,207
-2.9743633,1.168691,3.0588713,58,64,73
-1.9436064,2.529438,3.1098638,150,144,145
-2.3612127,2.5967789,3.1097472,16,29,48
-2.6822965,2.5408835,3.1051116,170,165,159
-2.675737,2.2371101,3.0949216,120,112,108
-3.0008843,2.6874125,3.0958242,147,140,141
-3.0916412,2.5660582,3.0996428,107,102,103
-2.891485,1.8699065,3.0844684,168,164,164
-1.7722037,2.6076193,3.1166384,185,179,180
-2.5903218,2.874196,3.1066031,191,184,185
-2.8384345,2.8047848,3.1056643,160,158,155
-1.1222653,1.478878,3.1014957,194,191,191
-2.5890815,2.222966,3.2144055,80,86,93
-1.0788369,0.9674551,3.095275,129,126,126
-1.5586469,1.1335453,3.0980377,170,167,167
-2.3500137,1.776246,3.0961943,192,187,186
-2.4887004,2.149369,3.4300952,215,67,81
-1.77177,2.6480541,3.10563,152,148,148
-3.0936763,2.6442413,3.1018627,108,105,105
-1.0150483,2.8872933,3.0967364,146,142,143
-2.5873525,2.6745944,3.0971909,204,199,196
-1.9977076,3.0296054,3.1090357,216,213,213
-2.819335,2.9328341,3.0965433,248,242,243
-2.7786713,2.0617821,3.0955708,211,206,204
-2.9960566,2.1961467,3.0970328,111,108,106
-3.0797484,2.3313372,3.094965,238,233,231
-1.9852917,3.128615,3.1061523,130,129,128
-2.176897,2.0704718,3.0985708,177,172,170
-3.1933978,2.3473878,3.0948598,41,56,77
-2.3625257,1.9858726,3.095739,121,114,112
-2.6427774,2.4759588,3.0974708,176,170,165
-3.2082431,2.2839904,3.0973806,16,32,56
-3.2603219,2.2823591,3.095407,140,137,137
-2.8598633,3.1646104,3.0955236,140,137,137
-3.056967,2.905272,3.0984044,204,197,196
-2.3948944,1.6905138,3.1022084,199,197,192
-1.5864887,2.6656494,3.1075842,178,175,175
-2.6052642,1.7752923,3.1039815,5,19,39
-2.6720757,2.7238903,3.0942469,145,139,134
-2.3951766,1.7816417,3.0991745,208,201,200
-2.737046,2.0414133,3.0921855,123,119,124
-2.4891055,1.9058018,3.0886598,119,111,108
-2.370912,1.828832,3.085343,190,182,176
-2.9142463,3.6037736,3.096342,126,121,119
-2.4981732,2.1997395,3.429948,151,83,89
-3.148834,3.7055717,3.0945559,115,111,111
-2.4412131,2.0760887,3.3628325,255,251,242
-2.7573187,1.72858,3.0889795,4,15,33
-2.2406628,3.4222937,3.0974476,179,174,171
-2.7486725,1.7043464,3.086368,7,22,42
-1.8081393,3.4208403,3.0958962,119,114,112
-2.1822615,1.9844301,3.0982735,104,101,95
-3.0716178,2.0221353,3.0833569,127,122,121
-2.7056432,2.0012379,3.0920405,50,65,86
-2.3064127,2.0348825,3.100317,41,55,75
-3.1849568,1.7495197,3.076467,213,204,198
-2.8183343,2.060034,3.087547,151,145,139
-2.4238713,2.078103,3.396793,89,106,127
-1.8930733,3.452444,3.1085987,255,253,252
-3.454735,3.4106088,3.0679178,210,201,198
-2.6022809,2.1874413,3.4328923,141,26,32
-2.2224395,2.6943235,3.104641,172,169,168
-2.9678354,1.7576466,3.0910664,147,144,144
-2.6441898,2.0475664,3.100003,175,168,166
-2.2118673,1.9208047,3.1094985,179,174,170
-3.4143236,2.1934457,3.0732923,89,83,84
-3.1158264,2.3035057,3.0863984,108,103,101
-3.0728657,2.7543802,3.0879116,205,202,201
-2.3231535,2.1336527,3.1075068,68,63,58
-1.905416,1.8591758,3.1155577,206,203,203
-1.886406,2.2685993,3.1185114,130,129,128
-3.318486,2.4099135,3.0855827,156,150,151
-2.487984,1.8262658,3.1110005,166,161,159
-2.159185,1.7122325,3.1165528,255,253,254
-2.1962752,2.5547562,3.11319,160,157,157
-1.7998102,2.6460018,3.1224675,215,208,207
-1.4097531,2.2335014,3.1322565,58,68,78
-2.3127542,1.9055443,3.1120768,74,71,71
-2.1717055,2.097179,3.1180649,223,219,216
-1.7293892,2.0001564,3.1272018,124,121,121
-1.4830792,2.5537367,3.1343808,178,175,174
-1.1313195,2.5937972,3.1352272,21,40,64
-0.6482364,3.0719519,3.1201706,25,43,66
-1.8400705,2.2387772,3.1268463,122,119,121
-1.4208705,2.672247,3.1362147,173,166,167
-1.1287932,2.3368998,3.139823,148,145,145
-0.9939524,2.0549307,3.1462796,0,9,34
-0.67684126,2.766868,3.1360261,22,39,65
-1.9828529,2.5983136,3.1256714,120,116,116
-1.6974933,2.1474652,3.135609,243,239,239
-1.8834431,3.2848835,3.120915,141,137,136
-1.8861055,3.8680825,3.1160202,180,179,179
-1.6224644,2.1107523,3.1345842,125,122,122
-1.962215,3.3402328,3.1254294,151,148,149
-1.5101402,1.7090263,3.13097,63,60,60
-2.4671938,3.8687143,3.0958374,173,171,173
-2.4172802,3.35959,3.1017466,142,138,138
-1.9490235,2.0158892,3.1167808,151,147,147
-1.8092134,1.4343245,3.1205688,132,129,129
-0.88743746,1.8309124,3.146749,219,217,218
-1.9729388,2.9939594,3.1260653,116,113,113
-0.80478716,1.8204253,3.1460047,98,95,97
-2.597095,3.3032837,3.0992427,156,153,151
-0.49166834,2.4037466,3.1411471,181,177,176
-0.54970646,2.2256272,3.141121,255,255,252
-1.2010427,1.5893176,3.1324136,201,198,197
-0.5164921,2.1540868,3.1442814,134,131,131
-0.29026842,2.0725455,3.1460652,193,189,186
-0.75680745,1.9142283,3.1359897,215,212,212
-0.7475306,3.4874015,3.1274347,191,186,183
-0.05625415,2.440658,4.1781235,38,76,156
-0.078099966,2.234939,3.5473764,31,48,100
0.32792217,1.9796022,3.1507425,220,217,216
-1.3674295,2.8633618,3.1222792,150,144,146
0.16000265,2.2247615,3.4965663,42,58,116
-0.4460988,1.6867757,3.142257,157,152,150
0.28504443,2.2175982,4.0033455,39,60,123
-0.053094625,2.0061293,3.1453805,140,133,131
-0.3211702,1.5318208,3.1460485,114,107,107
0.5968528,2.1879787,3.1471355,126,119,117
0.4585904,2.0215168,3.1572108,255,251,248
-0.53404427,2.3521488,3.161796,138,132,133
-1.6114945,2.301066,3.1257844,171,166,165
0.16798592,1.4318528,3.160563,74,72,74
0.8639733,2.465341,3.1528544,132,128,129
0.41120273,2.618599,4.1336303,43,69,147
0.85497814,2.52904,3.1555762,117,112,110
0.37958068,2.8555317,3.1420467,45,58,81
0.40314233,2.8244786,3.1474023,51,64,88
0.38786912,2.703954,3.873022,44,50,81
0.47216904,2.6481771,3.1461556,18,32,52
0.69036496,2.4367876,3.150014,137,133,133
0.37633747,2.3442273,3.582591,40,48,76
-0.1713314,2.0568833,3.1543345,255,251,249
0.09180355,2.26578,4.1660695,85,115,194
0.73945296,2.1805043,3.1471758,198,190,187
0.19447279,1.9935151,3.1407437,133,127,120
-0.59495735,1.6105449,3.141868,167,161,157
0.27244055,1.823745,3.1424155,255,253,249
0.63349664,1.9033391,3.1450443,155,148,147
0.5260205,3.1490946,3.1456237,48,63,87
0.42179692,2.9424634,3.1457353,34,48,69
0.11987913,2.6106315,4.1910195,78,118,207
0.5666702,2.4330592,3.1417408,135,129,124
0.0049237013,1.2312155,3.1543865,121,114,113
0.0888353,2.853909,4.147919,47,78,161
0.31530792,2.718916,4.156098,76,111,197
0.27747756,2.4254618,4.16698,92,118,184
0.9966522,2.5685668,3.1378214,255,248,246
0.17182827,3.262982,3.1411815,29,45,69
0.28686583,2.8724256,4.139215,4,13,51
0.509903,2.515495,3.1296883,168,163,158
0.6718632,0.9281428,3.1484294,216,209,208
0.13405061,2.8325605,3.8178444,64,69,94
0.48119646,2.121647,3.13162,255,254,248
-0.22457421,2.9983287,3.1423197,140,131,125
0.3565356,2.8174014,3.1565728,39,46,58
0.87773955,2.9387398,3.137429,255,253,249
-0.03072381,3.3644743,3.1328464,126,121,119
0.108793855,2.7315521,3.146706,43,53,77
0.34879684,2.8602605,4.1073112,53,57,84
-0.31021202,3.2576313,3.1406648,214,210,202
0.066566765,2.7973452,3.3418841,5,20,58
0.44230217,3.0719318,3.1309602,55,69,91
1.774308,1.2346809,3.12974,176,169,168
-0.042737246,2.858088,4.017744,48,53,82
0.9729821,1.5956261,3.141159,169,163,158
-0.5294069,1.0288718,3.117404,173,166,165
0.08743489,2.8352265,3.7445035,10,26,69
0.79277664,2.797266,3.12043,133,124,120
-0.3047135,3.1748977,3.1305752,135,128,126
0.19498682,2.880601,4.1280694,62,72,108
0.49724567,3.5442328,3.1115518,49,63,89
-0.19031382,2.7714238,3.3449278,113,117,119
0.30385745,2.847639,3.1213071,49,61,80
0.9788635,3.051333,3.1189487,210,204,205
-0.1336844,2.5623703,4.167285,78,119,210
0.06273103,2.8326101,3.710507,23,38,76
1.4749621,2.7094707,3.1130905,160,149,147
0.048141122,1.8984987,3.133386,189,184,180
-0.16681564,2.7764673,3.7870288,43,51,79
0.62343293,2.780764,3.1230943,214,206,200
0.16493529,3.5018835,3.1175716,49,65,87
-0.48336458,2.7172446,3.1325245,217,210,208
0.14754546,2.7756748,4.155518,64,97,181
-0.1264261,3.396018,3.1260533,187,182,179
-0.43766844,2.3968344,3.134128,115,108,107
-0.25625074,2.6797776,3.1337366,228,220,216
-0.41203976,3.089394,3.1398482,127,124,122
-0.6266203,2.2063663,3.1281383,167,162,160
-0.19708085,2.491859,4.152414,44,81,181
0.040923238,2.8528185,3.1214612,16,29,48
1.0545179,3.8016772,3.121364,200,193,193
-0.3773359,2.3560314,3.1329613,128,121,119
-0.1951325,2.66923,3.897385,90,101,130
-0.09958887,3.3392715,3.1189857,221,216,214
-0.049246192,2.1871843,3.1257727,164,159,157
-0.20384884,2.544534,3.843194,10,19,58
-0.29600656,2.9597173,3.1212275,220,218,212
-0.027901292,1.8966556,3.1492925,94,88,90
-0.23915279,2.310182,4.1130958,16,34,84
-0.18319404,2.7978816,3.1688032,51,52,56
0.93090016,2.0734937,3.1336784,159,156,156
-0.19329405,2.3498363,3.8912363,26,46,102
0.6410035,3.9444847,3.0971394,183,178,175
0.16983002,2.1869035,4.0746465,58,78,141
-0.20094657,2.399866,3.7507288,27,46,95
-0.5232558,3.4491224,3.1249645,218,211,211
-0.14223301,2.2809465,3.4124718,44,66,133
-0.5548004,3.3799953,3.1169481,224,218,219
-0.0999527,2.2521439,3.7910569,43,67,136
-0.8780277,2.6049263,3.139628,181,177,182
-0.0938437,2.2446299,3.648711,50,69,128
-0.8321277,2.276822,3.129284,133,130,132
0.07093829,2.2323086,3.7967832,35,57,124
-0.3295622,3.1871705,3.1177235,223,218,215
0.29258263,1.9897876,3.1330092,167,164,163
-0.16223228,2.2558258,3.836097,51,65,118
0.7486457,2.5129185,3.1259704,226,222,220
-0.25471497,2.333101,3.1318293,217,212,209
0.34084874,2.2768588,3.1256297,23,35,55
-0.55623066,2.0935102,3.13439,126,123,125
0.049062133,2.2438543,4.1450305,75,111,196
0.5542054,2.1830218,3.1283817,35,49,69
-0.11684954,2.2484367,3.554871,41,59,114
0.520535,2.5708117,3.1208823,226,220,217
-0.8621409,3.420116,3.109745,179,172,170
0.24958509,2.2327976,3.157092,112,119,158
0.54750735,2.367766,3.1227524,237,230,228
-0.46351874,2.3970437,3.1273828,241,233,231
0.15012747,2.2675946,4.1497955,31,72,163
0.73743415,2.0741105,3.134026,246,241,239
0.037326276,2.2265952,3.8298545,43,64,128
0.9408278,2.2365274,3.1505146,185,182,182
0.34628487,2.3346238,4.158093,34,74,168
0.19741917,1.9631577,3.1557145,243,237,233
0.064637184,2.1798716,4.1172056,43,67,133
0.15650785,1.7031641,3.1603737,152,148,146
-0.78937674,2.3520977,3.1519496,195,188,189
0.10376084,2.3030534,4.179084,47,89,190
0.45457375,1.8156738,3.1559281,162,156,157
0.6132545,1.9575113,3.150991,154,151,149
0.51851916,2.769639,3.1364279,50,65,88
1.1729932,2.1526666,3.146915,201,196,193
1.2770154,2.4615722,3.1372747,164,161,159
1.4438417,2.5608344,3.1341567,159,154,152
1.5899355,2.2134867,3.1443973,40,57,81
1.7741113,1.9806485,3.1440206,212,205,203
0.8889973,2.69053,3.1387033,187,180,179
1.3983822,2.4857042,3.1411073,207,200,200
1.8426888,2.3758745,3.1328404,47,61,83
2.8672233,2.8669825,3.1154902,173,168,165
1.1472881,1.9562017,3.1453354,208,205,205
2.7209198,3.938218,3.0910425,198,192,187
3.1933882,3.257464,3.1007993,187,181,176
3.5924487,2.6191874,3.0986288,156,151,149
1.6656845,2.5518014,3.1359768,225,218,217
2.296115,2.5479364,3.1300793,251,244,242
1.7963424,1.6773822,3.1536894,103,103,104
2.6163332,1.7596909,3.140491,155,148,147
2.7157598,1.2633188,3.1499777,189,185,185
1.7019511,1.8327128,3.1576793,10,27,51
2.6885324,1.8629713,3.1358254,78,73,69
1.9142699,1.1678877,3.1523094,115,112,112
2.8118913,0.95979786,3.152166,185,181,179
2.5968833,2.189179,3.1380014,154,147,147
2.874021,1.7778033,3.138753,147,142,139
2.2678545,1.2048576,3.1570191,136,129,121
4.0817003,0.845505,3.1396122,165,160,157
2.1099625,0.52068025,3.1679544,123,121,123
2.3038921,1.3772328,3.153654,102,101,100
3.2360055,0.9346664,3.1509304,75,74,71
3.240042,0.39285666,3.1558843,191,184,185
2.3445754,0.23935062,3.1693006,88,85,87
3.6013255,1.0740252,3.1420133,157,150,149
3.2402172,0.67990476,3.156104,209,205,202
3.3600872,0.26267323,3.1619418,78,74,72
3.489024,-0.21124542,3.161226,143,139,145
3.4205997,-0.45062268,3.1702547,162,159,160
2.9226322,-0.36289978,3.1761005,248,242,245
3.1079543,0.98326826,3.1554587,244,238,240
3.985503,0.5473392,3.1491687,171,164,163
2.7919126,0.6911055,3.1612592,178,175,175
3.6972675,-0.07883561,3.1663437,150,146,145
3.088963,-0.31227422,3.1719499,218,213,210
2.875205,-0.82562804,3.1807003,100,97,98
3.89998,-0.020053864,3.157753,160,154,155
2.952403,0.23705265,3.1673553,123,122,121
2.5865555,0.35179996,3.1710756,133,130,130
2.5761707,-0.60182583,3.1821766,27,42,64
2.1168215,-0.95508134,3.7353187,24,35,55
3.195376,-1.8879946,3.1828628,215,208,206
2.3578324,-0.53550386,3.185907,46,64,87
1.7773917,-0.84840596,3.1857321,22,36,57
2.9603674,-2.0221071,3.1845737,252,245,244
2.3409534,-1.3430215,3.7058487,80,93,115
2.2005935,-0.86971724,3.1902103,13,30,51
1.8873397,-0.90232646,3.5939875,43,53,69
1.5502548,-0.99551606,3.8987794,217,223,229
0.97532916,-1.2307,3.1704931,206,196,196
1.5820715,-0.101044536,3.181714,182,176,177
2.2546716,-0.9510697,3.5159373,52,61,77
2.0280266,-2.1995006,3.162511,255,254,251
1.9997839,-2.0783343,3.1590953,184,177,175
1.9325246,-2.9729304,3.1219316,162,156,151
2.732041,-0.84790635,3.152481,203,196,193
