-1.3216362,1.1338356,3.11104,175,172,171
-3.2798536,1.4537058,3.0658536,239,232,223
-2.2770286,1.2324736,3.091501,140,136,141
-1.6389341,1.0931714,3.1042967,212,205,197
-1.2080116,0.99957657,3.1132665,213,204,200
-2.8190768,1.1687684,3.0734098,116,117,120
-1.9505572,1.0224972,3.09411,216,208,204
-1.361129,0.92673755,3.108509,151,143,137
-3.193907,1.0407255,3.060029,121,123,129
-1.8799179,0.8955748,3.0943403,137,132,130
-1.1085627,0.8143322,3.106598,92,84,82
-1.89956,0.81259274,3.0947645,57,66,75
-3.543606,0.79765916,3.0460408,73,77,85
-1.7239957,0.7240662,3.0938907,18,30,46
-2.8264587,0.66475254,3.0587387,62,70,82
-1.2472558,0.65529436,3.1104326,255,254,247
-1.3278365,0.614969,3.1103406,189,180,174
-2.973149,0.4547351,3.0503278,113,111,113
-1.7706375,0.5693882,3.2978299,109,100,102
-1.303438,0.48868555,3.106907,136,130,125
-1.7410107,0.5123067,3.3742926,79,76,86
-1.2996247,0.40025166,3.1068234,179,173,167
-1.1725123,0.37728685,3.1050053,188,184,177
-1.510427,0.27986237,3.1017213,144,135,129
-3.1820042,-0.10893327,3.0456715,87,91,104
-1.456908,0.20559484,3.098096,157,149,146
-2.241175,-0.024819434,3.079002,164,157,156
-3.527799,-0.38462615,3.0951881,61,75,103
-1.107043,0.1501633,3.087253,219,211,207
-1.8061109,1.4332218,3.1099796,250,240,239
-1.2215109,1.2833846,3.1231809,192,184,180
-2.6229568,1.5183988,3.096862,167,161,162
-1.8920176,1.348486,3.105679,191,183,181
-1.423718,1.2387145,3.1108212,158,151,148
-1.072581,1.1580253,3.1073618,169,164,161
-2.462291,1.3209486,3.091782,186,177,177
-1.71239,1.1857206,3.103732,172,165,164
-1.2643204,1.1029382,3.113214,145,140,138
-2.9763398,1.2384295,3.070218,147,147,152
-2.0496356,1.1107461,3.0963702,144,141,141
-1.4467161,1.0294182,3.10526,154,148,141
-3.6852067,1.1186723,3.0388222,136,134,138
-2.315748,1.0004848,3.0834026,102,104,110
-1.5819929,0.9364723,3.1027744,198,191,184
-3.7129056,0.9248171,3.0428135,62,73,86
-2.088841,0.86365724,3.0901985,130,128,132
-1.2688053,0.83456284,3.1110854,202,193,188
-2.2180707,0.76854646,3.082717,149,148,152
-1.202234,0.77127516,3.1104205,168,163,158
-1.8211784,0.69802505,3.0983655,33,43,59
-2.8927858,0.5609,3.0555649,81,87,95
-1.2599571,0.6636283,3.1079524,135,129,124
-1.5524635,0.6170448,3.1726816,105,111,126
-1.7862451,0.57333004,3.2458177,30,37,30
-1.9500177,0.49624348,3.222114,12,21,37
-1.6609161,0.53229505,3.3162365,0,0,1
-1.6328936,0.48881757,3.3016293,2,5,14
-1.7761464,0.4426468,3.3515487,15,13,23
-2.5055218,0.0970183,3.063818,100,98,101
-2.9568956,-0.082423925,3.0496173,115,117,125
-1.0982404,0.34499782,3.1005096,221,215,210
-1.5768199,0.17419487,3.095524,137,128,123
-2.5536158,-0.18020582,3.0571296,188,183,181
-1.4342585,0.12686694,3.0957246,199,191,186
-3.1213906,-0.50306034,3.0428505,89,90,100
-1.4153204,0.046496034,3.0968897,142,134,131
-1.1933835,1.2911928,3.1199503,213,205,199
-1.1517913,1.2571917,3.1185884,139,138,137
-1.973244,1.3338885,3.1055198,208,205,199
-1.2598829,1.2186705,3.1189165,174,169,167
-2.2720513,1.2907817,3.0967276,62,60,65
-1.4262364,1.1786528,3.1100702,127,120,118
-2.6788054,1.2372177,3.079832,112,112,117
-1.5691164,1.1262065,3.108172,145,138,135
-3.0397112,1.156034,3.0696192,142,141,146
-1.7003586,1.0637013,3.1052377,185,175,167
-3.4969213,1.0528792,3.0574975,175,173,173
-1.8944099,0.9917623,3.098324,119,116,115
-1.1792347,0.9633926,3.114147,131,124,122
-2.065487,0.9067871,3.092863,199,193,194
-1.2307422,0.9020922,3.1140423,118,110,106
-2.0938072,0.8169466,3.0892015,211,206,204
-1.1700675,0.8434977,3.1133957,130,123,122
-1.8509192,0.74742204,3.0940528,25,38,55
-3.0209496,0.5722141,3.0576816,110,113,119
-1.3934407,0.7178812,3.105862,171,164,155
-1.9788482,0.6215758,3.1796713,43,47,57
-3.00118,0.37754908,3.0575686,101,106,118
-1.1197243,0.6530483,3.1159263,83,78,76
-1.2171221,0.5968704,3.1114435,133,122,121
-1.1022096,0.58299875,3.1157014,174,167,164
-2.8935454,0.104962766,3.055235,60,68,86
-3.7078402,-0.14741665,3.1057186,110,127,162
-1.4102583,0.38077536,3.1001291,144,138,131
-2.8140981,-0.0881843,3.0497782,69,75,90
-1.4696839,0.27969,3.099567,163,155,149
-3.2631667,-0.37219596,3.0480394,151,149,154
-1.2246192,0.27821583,3.1057546,167,161,156
-2.2215533,-0.13665456,3.0847392,171,163,161
-1.2768617,0.16638035,3.1021795,110,103,100
-1.4381886,0.031057477,3.0984223,221,213,209
-1.617913,1.3306797,3.1122954,248,243,239
-2.3534212,1.3644872,3.0983987,237,229,227
-1.4266043,1.2553756,3.1143157,176,170,165
-2.5473018,1.2963495,3.0903583,250,243,242
-1.5213752,1.2035642,3.1105013,235,232,227
-2.8922062,1.2205226,3.0748856,97,95,99
-1.6767039,1.1461142,3.1083047,183,175,171
-3.2631228,1.1220254,3.0573545,114,115,118
-1.7771771,1.0780826,3.1031585,197,190,189
-3.205198,1.0076094,3.0610013,104,109,115
-1.6708567,1.0091758,3.106504,149,143,136
-2.6645148,0.9178051,3.0729551,153,155,166
-1.3028603,0.961198,3.112142,156,149,147
-1.7998443,0.8851942,3.095511,32,44,63
-2.4622612,0.7748488,3.0793371,251,244,242
-3.043743,0.64800644,3.057983,124,130,139
-1.1548266,0.8448746,3.1046169,164,157,155
-1.1417131,0.81247324,3.1041055,242,234,230
-3.0740592,0.43363664,3.057651,74,83,97
-2.5260055,0.4667958,3.0697672,146,146,151
-1.5158124,0.6242465,3.109539,26,35,51
-2.4781547,0.3375607,3.071741,56,66,83
-2.0703397,0.44198573,3.277762,113,127,153
-2.5718977,0.15045989,3.0642562,74,79,91
-2.684267,0.02896887,3.0572367,82,87,98
-2.6395774,-0.047326207,3.0539207,150,148,150
-2.6007469,-0.119354784,3.0626483,101,105,116
-2.8853784,-0.32905328,3.0449789,55,59,70
-1.2420144,0.28640428,3.1049614,179,171,167
-1.1928558,0.26210517,3.106295,162,156,151
-1.5132046,0.06288582,3.0930848,227,216,213
-1.45103,0.03824228,3.094275,98,93,87
-1.1232932,0.14548308,3.1041243,153,144,144
-1.8485339,1.3304312,3.1025326,182,174,170
-1.9687383,1.2912459,3.1021824,127,122,119
-1.2230604,1.2432204,3.115612,188,184,184
-2.11194,1.2227685,3.0977678,121,115,117
-1.4026697,1.1918836,3.1181169,253,250,249
-2.8770506,1.1317499,3.0804758,192,189,190
-1.7424831,1.1240506,3.1017952,177,172,169
-3.674722,0.99206805,3.043565,127,127,134
-1.9542108,1.0419186,3.0959039,198,188,188
-1.1951332,1.0638721,3.1015449,196,189,188
-1.7390678,0.9837251,3.099212,156,148,144
-2.6360133,0.8449482,3.0772705,140,142,150
-1.2376235,0.97165495,3.1103997,215,208,206
-1.3694186,0.9200303,3.1083417,125,119,114
-1.334064,0.88961256,3.1099586,211,203,199
-1.2044559,0.8760159,3.1106539,214,204,196
-2.7727983,0.51794326,3.0669727,89,92,100
-2.2599437,0.5646394,3.0779595,126,122,122
-1.8107731,0.6304597,3.14366,0,0,4
-1.2444117,0.71712565,3.1140943,201,194,191
-1.9629145,0.5142521,3.2405705,44,52,67
-2.6460338,0.18108225,3.06101,61,70,82
-1.1759582,0.6063686,3.1157017,119,113,107
-2.2352676,0.15765226,3.0726006,74,79,84
-1.4624281,0.38631776,3.1020374,201,191,182
-1.2669225,0.41041493,3.1083202,153,147,142
-2.1724236,-0.07619649,3.064474,132,130,133
-1.3543582,0.24570942,3.1023018,206,198,194
-1.6541765,0.024754286,3.0854664,132,125,125
-1.7920499,-0.12197518,3.0832968,172,161,158
-1.8721313,-0.245466,3.0835538,188,177,174
-1.4737082,-0.08431387,3.094646,155,144,142
-1.3069947,1.300426,3.1179314,212,206,201
-2.6550443,1.2337649,3.0879424,90,92,100
-1.4587846,1.2345643,3.1122336,146,141,138
-2.688718,1.1443849,3.0821486,88,91,97
-1.6727264,1.1654704,3.1043596,220,212,206
-3.0747983,1.0226111,3.0646482,110,113,120
-1.7571526,1.0934211,3.1041775,104,101,101
-3.3529532,0.8858408,3.0598927,149,148,147
-1.8177319,1.0165849,3.0971332,135,132,130
-2.9119701,0.8260169,3.0661206,152,152,159
-1.3958738,1.006437,3.1117406,211,205,198
-1.7009151,0.92006,3.1017487,194,186,177
-1.9997952,0.8228271,3.0913572,112,110,114
-2.2971616,0.7136897,3.0803678,164,161,159
-2.5211456,0.60890156,3.0733309,177,172,177
-2.447469,0.56680673,3.0745904,68,72,80
-2.3618882,0.5289914,3.0743985,43,49,62
-2.3400257,0.4748824,3.0717328,39,39,42
-1.8408358,0.6038507,3.214271,0,3,10
-1.5548747,0.6174932,3.1211958,87,92,106
-3.6669943,-0.1705131,3.0936651,69,86,115
-3.3032444,-0.14876705,3.0470574,174,171,173
-2.4130015,0.115585804,3.0692205,57,68,78
-1.3967047,0.4764672,3.1039333,241,232,226
-2.4752765,-0.0697006,3.0651727,74,81,92
-1.5936613,0.27553254,3.0937557,208,200,191
-1.1288347,0.45418376,3.108489,225,217,213
-2.7522433,-0.46917665,3.0502558,127,124,123
-2.725513,-0.5459987,3.0472188,173,165,161
-3.0411193,-0.8211229,3.0397973,18,7,3
-3.173569,-0.91338944,3.1684227,101,126,173
-3.222461,-0.9693315,3.276104,147,165,204
-1.0111852,0.24327984,3.1024053,168,161,159
-3.021703,-1.0730438,3.23971,126,149,199
-1.5522506,1.3095163,3.1105456,120,117,115
-3.2010486,1.1390557,3.0661259,123,125,129
-1.9262187,1.2028451,3.0960712,115,115,118
-1.280128,1.2359223,3.111499,173,167,162
-2.231095,1.0982736,3.0926728,152,151,156
-1.4181182,1.16628,3.114935,96,92,90
-2.4916296,0.979645,3.0822222,208,205,208
-1.4568331,1.1022897,3.110254,189,181,172
-2.3527374,0.9112983,3.0793848,87,89,96
-1.2887168,1.0722712,3.1082177,127,120,117
-1.6672909,0.9617827,3.1012006,231,223,217
-2.2195308,0.7964493,3.078761,201,199,201
-3.0667665,0.53844416,3.0597525,62,68,73
-1.3492897,0.93052113,3.1107376,255,252,247
-1.6402485,0.8118361,3.0964265,47,58,77
-1.9789071,0.6671137,3.0862453,33,43,59
-2.259898,0.52565914,3.076663,141,138,140
-2.5536938,0.36582264,3.063261,79,86,97
-1.8297279,0.59025574,3.182228,0,0,4
-2.587949,0.20582265,3.0652184,66,73,83
-1.7586117,0.5667217,3.3732905,250,57,84
-2.0226753,0.35639778,3.2646885,94,111,138
-1.7069728,0.4947682,3.4043555,44,0,3
-1.3985415,0.45213157,3.1021614,255,246,240
-1.1728826,0.516598,3.1136622,150,145,141
-2.028023,-0.04342252,3.0741332,184,178,176
-2.6210663,-0.4897697,3.0520127,213,205,202
-1.345567,0.23537877,3.0981708,255,250,246
-1.6002784,-0.0010529757,3.0897956,169,160,155
-2.0237021,-0.38108373,3.0713978,128,119,111
-1.2428794,0.117923915,3.098217,186,178,174
-2.411867,-0.8486059,3.0746295,221,211,210
-1.45628,1.3465645,3.112451,223,217,211
-3.3936694,1.0800989,3.0588803,164,158,163
-1.9089639,1.2137868,3.0990927,156,153,153
-1.2860703,1.2685752,3.1048055,150,145,143
-2.1692443,1.1051861,3.0903854,200,193,192
-1.4366088,1.1909182,3.1152964,139,131,129
-2.5485928,0.95639014,3.082811,167,167,170
-1.5538077,1.109535,3.1085763,239,230,226
-2.373814,0.89887464,3.0815923,129,128,132
-1.2666242,1.109745,3.1043746,240,232,230
-1.5484047,1.0089647,3.1044402,200,190,178
-1.840776,0.89375633,3.0963516,123,123,125
-2.0479789,0.79020566,3.086617,64,62,65
-2.1632137,0.70626205,3.0864978,141,136,134
-2.1519475,0.65623766,3.0817533,168,163,161
-2.027419,0.64496857,3.0844927,141,138,141
-1.8724682,0.65974826,3.1375203,1,3,10
-1.6865144,0.6719977,3.101459,19,29,45
-1.3539004,0.7591805,3.1067462,221,212,206
-1.8053987,0.5788523,3.3043222,10,11,14
-2.4037077,0.1696297,3.0706313,149,150,153
-2.4615345,0.058127165,3.0692992,92,98,112
-2.322197,0.041291237,3.0682528,131,133,140
-1.71244,0.40464735,3.3287792,2,0,4
-1.1948752,0.5311921,3.1130586,133,128,123
-2.5758457,-0.40304887,3.0534081,143,137,132
-1.1592393,0.44311482,3.1131487,158,152,147
-1.6959786,0.008598566,3.0823674,80,79,84
-1.0559618,0.40862206,3.1123898,170,165,162
-2.0758154,-0.42276347,3.0730753,169,160,160
-1.777103,-0.2709766,3.0808718,222,211,206
-1.6578443,-0.25163734,3.0798411,139,130,127
-1.7483089,1.327131,3.1013947,187,181,176
-2.0496309,1.2386112,3.090073,144,141,143
-1.476929,1.3060669,3.111189,157,153,149
-3.0264409,0.98169744,3.0682545,119,121,125
-2.0266755,1.1393869,3.0903356,114,115,118
-1.4804969,1.2240427,3.1123219,155,150,148
-3.1052349,0.8132644,3.064485,82,87,99
-2.001766,1.0364478,3.0922623,118,116,118
-1.4174287,1.1543634,3.1132352,193,184,178
-2.7221353,0.75697577,3.0680351,117,119,126
-1.7296529,1.0017415,3.0976083,153,145,139
-3.5070064,0.40578032,3.047461,107,109,116
-1.9505088,0.8552618,3.0929804,177,172,170
-3.7497365,0.1837452,3.0445075,72,73,78
-1.84621,0.8073294,3.092133,45,59,77
-2.9870005,0.32157093,3.0541453,121,122,127
-1.490505,0.8648902,3.105236,44,57,76
-2.2348094,0.5081046,3.0782456,144,145,148
-1.2052631,0.91455233,3.1119485,140,134,129
-1.497519,0.7416969,3.1006165,21,31,49
-1.5875323,0.65347326,3.0990417,42,51,66
-1.2735629,0.76608276,3.1112442,226,217,212
-1.5998952,0.6337228,3.3654466,248,255,255
-1.5653057,0.50150424,3.111114,113,106,81
-1.2784905,0.606011,3.1076999,197,186,180
-1.1299944,0.6432096,3.1101124,159,153,148
-2.5678158,-0.3923235,3.0510268,181,175,170
-1.4053001,0.32857782,3.0957785,190,181,174
-1.3496387,0.30300874,3.0979178,210,200,194
-1.6079745,0.032447398,3.0878127,211,201,198
-2.3295898,-0.64142454,3.0621061,162,157,154
-1.2711332,0.17049104,3.0984793,206,200,195
-1.6348355,-0.22067791,3.094809,187,180,178
-1.6290097,1.3639874,3.113833,181,177,175
-1.4776566,1.3605111,3.1103826,174,168,164
-2.35023,1.126689,3.093373,87,85,90
-1.5027981,1.3001666,3.111414,132,126,123
-2.3394818,1.0491403,3.08651,102,102,108
-1.5001183,1.2439911,3.1101527,207,201,196
-2.414357,0.9427366,3.0823474,136,135,140
-1.4438889,1.2018429,3.11064,126,119,117
-2.0043433,0.9857662,3.089981,167,164,164
-3.1711752,0.5383843,3.0516772,148,149,160
-1.6024218,1.0495682,3.1059825,195,187,183
-2.324459,0.73594165,3.0768442,72,65,64
-3.5083263,0.20824367,3.0494137,112,114,119
-1.5348959,0.9662376,3.1043744,182,176,171
-2.080974,0.68686074,3.0889072,179,177,179
-2.922629,0.24475926,3.050873,100,107,119
-1.3314712,0.9475899,3.1108694,210,204,199
-1.5091808,0.8191439,3.102384,51,65,84
-1.4826632,0.7892426,3.1052322,23,33,51
-1.4368932,0.7687911,3.104001,187,177,171
-1.2881727,0.80989283,3.1119628,229,223,216
-3.1504867,-0.3691888,3.043089,78,80,91
-2.6382537,-0.14231884,3.0530567,128,131,141
-1.766321,0.46208653,3.365779,56,56,65
-1.7371967,0.42537478,3.3533926,0,0,6
-1.5858159,0.4838591,3.3632894,67,83,65
-1.5151069,0.35242885,3.0989208,248,237,227
-1.3312509,0.4356604,3.1033368,167,160,153
-1.4329336,0.29546148,3.094544,140,132,127
-1.4104419,0.2550871,3.0967336,186,177,170
-1.3962939,0.20308429,3.0927634,223,214,210
-1.5581608,-0.007382989,3.0879285,225,213,208
-1.7275686,-0.24224395,3.0786538,240,230,224
-1.7582307,-0.35296154,3.077808,248,236,233
-0.989967,0.34992927,3.102679,166,158,155
-1.667434,1.3404727,3.1102386,219,211,207
-2.276039,1.1359758,3.0915864,177,172,173
-1.6392958,1.2903152,3.1065135,200,192,188
-3.3853695,0.71115553,3.049821,153,147,150
-2.1775236,1.0533873,3.0915618,124,118,119
-1.5850301,1.2198913,3.1048925,185,180,176
-3.2336304,0.5940307,3.0510192,69,76,87
-2.093038,0.96671045,3.0870132,122,123,126
-1.4343894,1.1855098,3.1077566,166,160,155
-2.5569415,0.69338894,3.0757546,122,116,119
-1.5759988,1.062562,3.1023445,207,197,189
-2.6023738,0.56794095,3.069568,176,169,168
-1.4364641,1.0552591,3.1048446,253,247,242
-1.9877839,0.7513698,3.0867639,111,113,118
-2.7550225,0.31259194,3.0549712,178,175,176
-1.3282032,1.0018322,3.1095185,226,221,218
-1.749749,0.73244226,3.0914235,21,34,51
-2.3683028,0.33101565,3.073968,48,53,64
-1.2504108,0.93475133,3.1089334,182,172,172
-1.7448196,0.6004071,3.1285722,8,19,23
-1.9665921,0.44182748,3.245944,38,51,69
-1.6553926,0.6253088,3.3577766,255,254,255
-1.5556846,0.6009121,3.2313871,148,151,160
-1.429456,0.5885255,3.1003366,107,100,91
-1.1787226,0.72556126,3.1119542,165,158,157
-2.0888739,-0.05258715,3.0730004,184,178,174
-1.189589,0.6086981,3.1064315,133,127,120
-1.3649442,0.3961992,3.1002545,117,111,104
-0.99844956,0.6636243,3.1110382,162,157,154
-2.107422,-0.4383663,3.067027,152,145,143
-1.9267802,-0.35789979,3.068474,238,226,221
-1.5459793,-0.06034732,3.0825253,184,173,170
-1.0924973,0.3438546,3.1027274,148,139,133
-1.7597551,-0.46636283,3.0794227,255,243,238
-0.8897072,0.43226257,3.1025047,255,253,253
-1.4008257,1.4094198,3.107484,158,151,148
-1.7762349,1.2575059,3.1087198,255,245,237
-2.5220623,0.96886855,3.0774474,144,142,144
-1.4759362,1.3005692,3.1118202,213,208,204
-2.1482737,1.0180213,3.0951467,155,153,155
-1.4563591,1.2503726,3.1103451,219,212,211
-2.4241848,0.8249656,3.0778618,170,164,166
-1.5663326,1.1438818,3.1046767,122,116,111
-2.6641102,0.62367404,3.06884,171,165,168
-1.6322091,1.0464034,3.1027699,225,218,210
-2.6156647,0.53684336,3.0638347,161,159,161
-1.410305,1.0822794,3.1078012,138,133,128
-1.7742991,0.8567853,3.095018,49,63,83
-2.2234325,0.5676645,3.076677,160,157,158
-2.760703,0.20738918,3.0599844,78,81,89
-1.2679946,1.014189,3.109407,158,153,151
-1.4650154,0.85559285,3.1010413,49,63,83
-1.6853092,0.67069596,3.0905688,21,32,45
-1.9137671,0.5013052,3.2078245,0,0,6
-2.2769222,0.1592992,3.0704823,139,138,141
-2.535227,-0.09771401,3.0604124,55,62,74
-2.2687309,0.014049053,3.0632358,98,96,99
-1.7237573,0.46880355,3.3629491,254,125,140
-1.5385644,0.4405703,3.0911243,146,135,125
-1.2670188,0.6049186,3.0977383,181,175,168
-2.5558712,-0.5852219,3.0533519,98,99,103
-1.8496425,-0.047020555,3.0746272,218,208,202
-1.7333543,-0.018817782,3.075708,87,89,95
-1.6254332,0.0044119954,3.073371,186,176,170
-1.389401,0.17247438,3.0885653,140,129,126
-1.0790842,0.4344514,3.1040041,185,177,171
-2.231917,-0.9322827,3.0525885,235,225,218
-1.407377,-0.0869776,3.0883505,216,204,201
-0.95472336,0.3756371,3.1033807,143,136,134
-1.178113,0.021299541,3.1010976,135,128,126
-2.5086966,0.9849081,3.0757108,113,112,117
-1.4765615,1.3450979,3.1118588,121,116,114
-2.2324288,1.0089893,3.0861871,110,104,105
-1.480624,1.2870625,3.1130548,111,104,103
-2.4694543,0.8227335,3.0761,156,149,148
-1.635318,1.1578671,3.106308,218,211,209
-2.808736,0.56705266,3.0613627,119,123,134
-1.7257206,1.0456221,3.0957818,219,211,206
-2.805154,0.45507467,3.0575933,78,83,95
-1.4615865,1.1087171,3.107575,184,176,171
-1.7705984,0.9013109,3.095983,200,195,194
-2.1866229,0.61715776,3.0757132,145,141,138
-2.5860968,0.32233372,3.0631304,64,73,87
-2.8457747,0.09187323,3.049992,112,114,120
-2.813417,0.03440684,3.0521674,45,59,79
-2.550104,0.12975568,3.0594058,80,84,89
-1.7900307,0.5892178,3.1153836,0,0,4
-2.6716497,-0.13113165,3.0514402,140,144,152
-1.3712051,0.7694748,3.099987,149,141,135
-1.4144461,0.674858,3.0986037,170,162,158
-1.5447845,0.49866462,3.0866418,205,197,190
-1.5842557,0.51107585,3.3543222,86,36,47
-1.43644,0.44749758,3.0907402,179,168,163
-1.0904512,0.70834744,3.1130133,147,140,138
-1.2367728,0.4913423,3.09676,227,219,213
-1.7843511,-0.16252947,3.0726838,231,219,214
-1.19379,0.39970544,3.09966,220,212,208
-2.1769826,-0.8143709,3.057931,190,180,172
-1.3178537,0.09594029,3.0882556,188,177,173
-0.8511156,0.5870946,3.0937324,132,126,127
-1.336951,-0.10808897,3.089365,137,129,127
-0.81759596,0.50351334,3.102371,200,195,192
-1.1287522,-0.032126367,3.0959692,160,152,150
-1.7234974,1.2482307,3.108129,194,188,183
-2.3001046,0.94740736,3.0841842,179,179,180
-1.9991748,1.0413057,3.0915833,142,139,141
-2.027371,0.98446125,3.0927043,101,101,106
-2.0508168,0.92779505,3.0890608,90,88,90
-2.1267257,0.8408519,3.0827322,120,117,119
-2.3890204,0.64652044,3.0742483,94,94,102
-2.6633034,0.43208888,3.065756,163,166,174
-2.998965,0.16649461,3.0519657,81,88,100
-1.3018312,1.1461275,3.1023078,197,188,183
-1.4154716,1.0373185,3.1071892,171,165,160
-1.5022101,0.9386543,3.105006,26,39,56
-1.402345,0.962444,3.108531,238,229,223
-2.8056164,-0.10538936,3.050539,97,101,110
-1.6541376,0.6733511,3.0951371,45,28,43
-2.254995,0.135014,3.076338,115,119,127
-1.3719363,0.7770659,3.0991945,131,124,115
-1.4986849,0.60543025,3.0920548,161,151,143
-2.1122541,-0.015450716,3.0699291,107,107,108
-1.715193,0.37428522,3.342245,4,1,11
-1.1327844,0.7453723,3.1109767,171,164,161
-1.1341906,0.6795637,3.1117892,218,210,204
-2.4433346,-0.82010996,3.0430043,193,185,181
-1.918077,-0.34524047,3.0647635,242,230,224
-1.6556911,-0.13771415,3.0742702,238,228,222
-1.3703699,0.122202694,3.0895526,255,251,245
-1.1345048,0.34227315,3.1007876,202,195,193
-0.87826645,0.6063325,3.1077702,180,175,171
-1.6784503,-0.59609985,3.070541,255,250,247
-1.1892495,0.0016925931,3.0903149,180,172,168
-0.8457588,0.43613073,3.1065223,173,166,164
-1.1588607,-0.16118932,3.0907753,154,146,144
-2.0483313,1.064878,3.0918565,124,125,128
-2.0232027,1.0269759,3.0929053,168,169,172
-2.4110785,0.7664044,3.0811753,58,58,66
-1.728349,1.0940547,3.1016748,132,129,127
-1.4750175,1.2003548,3.1124172,166,159,158
-1.3584754,1.2341363,3.100453,118,111,109
-2.7667515,0.30537024,3.0628939,111,105,106
-2.5435157,0.38057476,3.068626,64,73,87
-2.2316432,0.5245077,3.0783176,125,123,124
-1.917522,0.6840331,3.091154,0,0,14
-1.2594428,1.1075859,3.0984826,162,154,152
-1.4487481,0.91626763,3.1041455,125,117,113
-1.9795635,0.45978552,3.2017019,14,18,26
-1.295898,0.9364694,3.1092439,167,161,156
-1.5753081,0.6373836,3.1048892,37,44,55
-1.9185774,0.33461484,3.3261194,142,126,138
-1.3937671,0.6712515,3.0978603,159,153,147
-1.7261231,0.39406034,3.3686233,68,65,75
-2.4640098,-0.597581,3.0515575,129,126,126
-1.1761017,0.6987377,3.1109142,184,175,175
-1.9596565,-0.27808642,3.0654578,247,238,232
-1.5072215,0.15989077,3.0834384,192,173,165
-1.2122922,0.4457756,3.100084,226,218,214
-1.0274827,0.6171532,3.1135206,133,128,126
-0.90366924,0.71803534,3.1179898,198,193,190
-1.8323424,-0.69269335,3.0666265,238,228,220
-1.4160492,-0.2023809,3.0817947,177,166,162
-1.069186,0.23683894,3.1024098,195,186,184
-0.8124523,0.5675237,3.1140423,237,229,223
-1.3201833,-0.39764416,3.0929024,180,169,168
-0.7740116,0.4562911,3.1086364,188,178,177
-1.7218425,1.2156708,3.1076198,168,161,158
-2.0867434,0.958251,3.0777807,85,87,92
-2.0482783,0.9342124,3.0824628,102,99,101
-2.0102315,0.91007197,3.0865905,125,120,118
-1.9552791,0.8967573,3.0908983,166,161,159
-1.7296498,0.9965651,3.0977008,80,76,74
-1.5248663,1.0916153,3.1082916,206,200,197
-1.3755786,1.1553987,3.1056995,255,246,240
-2.9055562,-0.026762903,3.0431724,123,125,130
-2.4852283,0.21242446,3.0615168,115,116,120
-1.8341212,0.68041253,3.2203274,0,1,8
-1.3933835,0.9645185,3.1069384,220,213,209
-1.8660965,0.53554565,3.2455335,0,0,6
-1.3097024,0.932724,3.1094031,142,137,133
-1.7195177,0.5655202,3.3367448,62,59,67
-1.2458212,0.883224,3.1105008,226,218,214
-1.7656443,0.39528286,3.3561153,74,74,81
-1.2418265,0.76689994,3.1065836,241,233,221
-1.6393645,0.38376004,3.3518872,80,97,88
-1.1330316,0.7620241,3.1114244,190,183,182
-1.8717134,-0.23198366,3.065615,175,165,159
-1.4131978,0.2561074,3.0880585,170,160,153
-1.1346996,0.54790664,3.102748,189,181,179
-0.9619163,0.715948,3.108245,134,131,129
-2.082377,-1.0324068,3.0505009,171,162,156
-1.5472839,-0.35045636,3.0758877,156,147,141
-1.1819565,0.123466074,3.092947,136,128,124
-0.9165518,0.4745284,3.1040387,134,129,127
-1.6972563,-1.0480902,3.059313,222,212,206
-1.0626285,-0.000307858,3.0953197,206,198,195
-0.7218603,0.55328906,3.1025796,174,167,166
-1.56019,1.3254488,3.1114826,113,108,105
-2.976459,0.3968845,3.064363,65,72,83
-2.6006968,0.5703273,3.0671523,151,145,146
-2.476239,0.59145576,3.0675488,134,136,143
-2.2954783,0.6548524,3.074881,128,128,133
-2.063836,0.76145,3.0853224,108,106,109
-1.916784,0.81538635,3.0923648,83,86,89
-1.7214859,0.9120366,3.097449,113,105,99
-1.5549462,0.9951388,3.1056156,255,254,247
-1.3527493,1.1149395,3.1092165,189,178,175
-2.2617605,0.2754499,3.0761998,142,140,145
-1.4771242,0.90615153,3.1062593,65,78,101
-1.9880803,0.39637005,3.2199037,48,61,86
-1.318114,0.9430864,3.1074975,217,211,204
-1.8648384,0.40744567,3.3439722,137,114,123
-1.5394115,0.5997837,3.1264803,97,103,117
-1.2703073,0.8205935,3.1080027,159,151,145
-2.1763499,-0.31669104,3.0586336,184,175,169
-1.3197424,0.6231653,3.1001248,104,96,90
-2.100943,-0.46629798,3.0628877,191,184,181
-1.5785279,0.11380917,3.0830812,174,163,158
-1.2420232,0.48902756,3.0960999,152,142,135
-1.0051706,0.7593899,3.1105878,176,170,163
-1.9175487,-0.7453884,3.0593832,208,200,191
-1.4830747,-0.18057507,3.0817294,173,164,158
-1.1929803,0.19367993,3.0937219,191,180,177
-0.9075105,0.60462075,3.1096604,207,205,201
-1.4914138,-0.62092113,3.0705063,140,131,127
-1.0217509,0.18101162,3.103588,184,171,164
-1.668458,-1.3641413,3.0533779,202,192,184
-1.1840415,-0.4739157,3.0979056,241,233,231
-1.7428973,1.2201974,3.1077166,209,203,198
-1.7478254,1.1717271,3.101952,214,208,201
-1.7156222,1.1535387,3.1039965,182,177,174
-1.714535,1.1136045,3.1007714,151,146,144
-1.6876945,1.0906147,3.1023908,134,128,124
-1.6981173,1.0390663,3.099224,176,170,165
-1.66501,1.018983,3.098206,182,176,169
-1.4891946,1.1150953,3.1081738,142,136,131
-2.6450691,0.08019185,3.0628514,74,82,97
-1.9526827,0.61744213,3.1567001,4,4,10
-1.5218568,0.9370603,3.1010947,23,36,53
-1.9599094,0.48146814,3.2076411,13,18,32
-2.3395422,-0.01646173,3.0636415,89,93,101
-2.546839,-0.34932435,3.0456953,67,59,55
-1.347269,0.8638538,3.102253,119,113,107
-1.5906193,0.6275084,3.374555,10,65,102
-2.1044908,-0.20307809,3.0648942,166,162,159
-2.3438685,-0.6376232,3.0546808,115,112,112
-1.1839967,0.78322846,3.1092267,138,132,127
-1.5027268,0.25110084,3.0898805,161,151,143
-1.0704422,0.7973053,3.1135323,150,142,139
-1.5129426,0.017811239,3.0837338,255,234,221
-1.0509448,0.66705304,3.1103282,177,171,167
-1.5612631,-0.32251918,3.0750723,226,218,209
-1.0406713,0.49659294,3.1045961,73,68,65
-1.6457789,-0.803555,3.061603,205,193,186
-1.0418985,0.26867104,3.0968657,105,96,96
-1.7315514,-1.3897318,3.0507994,226,216,208
-1.0212121,0.057188153,3.1001968,152,140,136
-0.8881694,0.22012582,3.1046028,232,224,221
-1.6134267,1.3352437,3.109718,114,110,107
-3.1874077,0.19273353,3.0625386,38,48,66
-3.0981362,0.1810503,3.058282,90,91,95
-3.1090677,0.09616101,3.0516415,116,116,123
-2.9327185,0.15081638,3.0568895,76,79,88
-2.9936543,0.022854567,3.0518324,59,66,77
-1.4090631,1.2529554,3.092877,197,190,188
-1.4601142,1.1711385,3.109613,255,251,252
-1.5412879,1.0561451,3.1024628,252,243,237
-1.5244048,1.0232826,3.0998464,218,213,210
-1.4459355,1.0487586,3.1061552,209,200,195
-2.9246457,-0.48731375,3.0352883,166,162,159
-1.9493408,0.4471015,3.2136285,36,49,72
-1.468631,0.8560092,3.1013317,35,47,67
-2.3093235,-0.17338574,3.0493355,107,109,115
-1.5607336,0.6266135,3.1361332,100,103,117
-1.2487502,0.9231929,3.109868,209,201,199
-1.548003,0.58658767,3.3507915,249,236,239
-1.8735983,-0.087319136,3.0681136,189,182,180
-2.2530146,-0.76543736,3.0510273,154,148,140
-1.400636,0.37842453,3.094028,158,148,142
-1.0416498,0.84808135,3.1037378,134,129,126
-1.4755886,0.034651518,3.083126,248,238,230
-1.044342,0.68426603,3.1106772,149,144,141
-1.5304804,-0.34185088,3.0727606,196,187,181
-1.0524786,0.46456185,3.102849,119,112,111
-1.6131864,-0.85634494,3.062458,227,217,210
-1.0412862,0.24668407,3.1008873,185,178,171
-1.8147562,-1.7645069,3.055297,216,204,197
-1.0179503,0.0067949295,3.0972643,209,199,197
-0.73477745,0.5706157,3.0954013,231,224,223
-1.7917013,1.2367114,3.1048357,183,176,176
-2.0635955,0.9747038,3.08667,110,110,117
-1.7679751,1.1479143,3.1050081,180,176,174
-1.5126078,1.304315,3.0999143,106,99,98
-2.45425,0.48848945,3.0637197,111,113,121
-2.0875669,0.7297592,3.0767775,135,132,134
-1.7212036,0.99110794,3.0983176,181,175,170
-1.5006969,1.1406446,3.1083665,221,213,207
-2.2371218,0.38176683,3.0741212,56,56,63
-1.5217791,1.0136493,3.1030126,129,123,117
-1.8083177,0.65545523,3.1050215,13,16,26
-2.3179395,0.015727758,3.0687003,86,88,94
-1.442276,0.91034406,3.1016655,223,211,206
-1.8276308,0.47089523,3.3507993,85,0,1
-1.4494879,0.76387286,3.0997634,142,137,135
-2.4561868,-0.6364304,3.044386,121,118,116
-1.4699135,0.57741773,3.0959754,255,252,247
-1.8822415,-0.1038928,3.0911553,205,201,199
-2.2307787,-0.78711927,3.0474708,213,202,198
-1.2794702,0.5797328,3.1001432,206,197,191
-1.7970386,-0.3999896,3.071514,235,224,214
-1.1096206,0.6767287,3.1052809,134,127,126
-1.4284596,-0.034164667,3.0842292,193,184,178
-1.9847827,-1.3138999,3.0488262,198,189,183
-1.0968008,0.36909404,3.102255,133,124,119
-1.4851835,-0.6581342,3.077589,230,222,218
-0.89981174,0.5624593,3.1055675,133,126,124
-1.1001174,-0.09405911,3.0960112,255,252,249
-0.8590926,0.367689,3.1009054,203,195,192
-0.80114484,0.34277695,3.1039586,215,208,207
-2.8416417,0.45202187,3.062406,60,67,80
-2.9730623,0.28322735,3.0589352,65,74,90
-3.1599038,0.06060958,3.0585055,31,38,50
-3.2162898,-0.06937152,3.0486507,56,63,76
-3.0920918,-0.05445975,3.0486388,84,89,101
-3.1189325,-0.168544,3.043233,71,75,85
-3.1544988,-0.2973529,3.0322978,145,144,148
-3.0387414,-0.2901926,3.037886,104,104,112
-2.8047988,-0.16395777,3.0500848,125,122,124
-2.220508,0.33057168,3.0749545,104,106,112
-1.6193638,0.88353205,3.096853,59,72,95
-1.8882382,0.54621094,3.217445,4,7,13
-1.3112702,1.0993856,3.1060905,111,106,104
-1.6516728,0.66301036,3.2100682,113,28,40
-1.2867141,1.0071251,3.107738,255,248,244
-2.061046,-0.096847236,3.0677867,156,151,149
-1.4615757,0.6252686,3.0976048,252,243,237
-2.0404506,-0.32388246,3.0636187,143,135,129
-1.1664717,0.890829,3.1086073,135,128,126
-1.2732627,0.6287096,3.1016736,143,135,131
-2.0711117,-0.85176134,3.0601206,192,185,176
-1.3985171,0.1934061,3.0881896,229,220,214
-1.011617,0.8159035,3.110258,255,255,250
-1.3731108,-0.03047043,3.0849066,184,177,169
-0.9329684,0.7768739,3.1085265,236,231,225
-1.1915565,0.058158338,3.089456,216,208,204
-1.7521231,-1.4982013,3.0644984,166,157,151
-0.9503226,0.34961542,3.1001792,180,173,171
-0.8201456,0.54984516,3.106801,197,192,189
-0.9044856,0.08288646,3.0983682,191,184,182
-2.1587703,1.0271577,3.0768595,162,160,164
-2.1817951,0.9382436,3.0848038,168,165,168
-2.0104384,1.0086741,3.0942252,103,99,103
-2.4444425,0.5894015,3.0706325,111,113,121
-2.791613,0.2102077,3.0614872,146,142,147
-1.7519605,1.0530473,3.103081,115,112,114
-2.3789318,0.4076123,3.0730343,188,182,183
-1.5760112,1.1042731,3.1037118,236,228,223
-1.9295614,0.685814,3.0890582,32,43,55
-2.6491938,-0.15828687,3.0458803,84,89,100
-1.549706,0.94683236,3.1063693,34,47,64
-1.7201064,0.67369634,3.0831504,22,32,48
-1.9616168,0.35853684,3.2619278,90,108,137
-2.2263014,-0.14731914,3.0668886,187,176,171
-1.238086,1.0438068,3.1072998,126,121,118
-1.3958597,0.75149745,3.1030183,200,191,183
-1.5291276,0.45641464,3.0830913,83,72,63
-1.5555048,0.3035365,3.0809803,198,188,177
-1.7141218,-0.07750738,3.0755873,143,139,139
-1.1448781,0.77771634,3.1084046,56,49,41
-1.608053,-0.17742473,3.072622,184,177,169
-1.1193688,0.6259337,3.103979,212,206,202
-1.6142817,-0.5047139,3.0751486,224,214,208
-1.0456114,0.54781115,3.1009765,130,123,120
-1.383841,-0.3665601,3.0818472,240,229,226
-0.87241614,0.7108661,3.1098661,96,93,94
-1.0485408,0.097099006,3.0900269,196,188,185
-0.9111228,0.29410538,3.0968485,219,211,209
-1.7985213,1.4042016,3.1145284,183,177,172
-1.7309422,1.3692629,3.1087537,218,208,198
-1.5545611,1.4624398,3.1015515,221,216,214
-1.6046326,1.3864579,3.1098251,148,141,139
-1.7399437,1.2388148,3.1036973,171,165,160
-1.846703,1.1052651,3.103166,137,134,134
-2.0272508,0.8999944,3.0930986,180,177,177
-2.242513,0.6499513,3.0800943,168,164,162
-2.3904135,0.44527125,3.0745168,105,104,109
-2.1795266,0.5700368,3.0803888,107,109,114
-1.9686825,0.7065737,3.0898871,41,50,64
-1.8596749,0.74975276,3.0911913,29,42,60
-1.7512989,0.79689395,3.0912533,42,56,74
-1.570193,0.93217933,3.10211,59,73,93
-1.3832383,1.0850501,3.1069694,144,139,137
-2.6637177,-0.5433135,3.0435185,165,157,152
-1.8555286,0.44714978,3.3152423,0,0,3
-1.4637227,0.78296995,3.1049967,38,51,68
-1.2484238,1.002562,3.1089754,173,166,165
-2.396758,-0.74546325,3.0512326,185,179,174
-1.4587493,0.5286194,3.0927567,216,206,198
-2.4308462,-1.1390753,3.0459437,141,133,129
-1.2576876,0.65566766,3.1016545,151,145,138
-1.042012,0.94321525,3.1100116,205,198,196
-1.7854621,-0.5444944,3.0691442,249,237,230
-1.3748429,0.09987229,3.0857244,134,126,122
-1.1210284,0.4997602,3.1015592,187,181,176
-0.88197434,0.8947748,3.100366,156,153,151
-1.2662802,-0.10764235,3.0878105,152,142,141
-0.89486265,0.6643947,3.1123524,255,253,252
-1.1150877,-0.07989144,3.0910301,234,223,220
-0.87143517,0.42072806,3.10677,101,94,93
-1.823179,1.3392358,3.0993912,251,242,239
-1.8108003,1.2977066,3.1029983,161,155,148
-1.6814315,1.3529396,3.1104965,243,236,233
-1.6003442,1.3754013,3.1119962,124,117,118
-3.0597742,0.11903787,3.0601764,76,75,79
-2.5496314,0.46800083,3.0653944,119,119,126
-2.1836848,0.71792835,3.0876617,112,108,109
-1.850404,0.95750517,3.0945516,77,75,79
-1.5220337,1.2132988,3.1111398,184,179,175
-2.5766401,0.09642053,3.0609024,146,144,146
-1.8806202,0.7253232,3.0845957,19,32,49
-1.477876,1.0912313,3.1058397,130,124,117
-2.4161334,-0.04190719,3.0600915,105,107,111
-1.8178308,0.6048516,3.2185192,3,4,8
-1.4804957,0.894017,3.1028967,37,47,66
-2.2635972,-0.2017709,3.0596945,230,222,217
-1.5620902,0.63226616,3.104958,49,58,74
-1.2981887,0.91633976,3.1085439,255,246,239
-1.1391623,1.074475,3.1092973,208,204,200
-1.5764427,0.5021088,3.3593044,117,122,124
-1.1300993,0.9433212,3.1159272,125,117,112
-1.5983579,0.041415155,3.0829902,198,188,181
-1.3840544,0.30509192,3.09375,229,217,211
-1.2004247,0.54177535,3.1044827,206,198,194
-1.0477083,0.7417551,3.111322,200,192,189
-0.90804565,0.92507213,3.1064658,247,243,239
-1.6158829,-0.7720994,3.06565,239,230,224
-1.2260664,-0.036148667,3.0884771,205,195,192
-0.9608127,0.47717142,3.1031356,123,114,115
-1.649473,-1.566728,3.0494437,173,162,157
-2.2003915,1.1908064,3.0859785,86,84,86
-1.8287492,1.393752,3.105418,252,246,239
-1.9991515,1.2329956,3.1013975,151,148,150
-2.478482,0.8376714,3.0782292,108,100,104
-3.1523488,0.26771128,3.0583496,106,110,121
-1.7235339,1.3108082,3.1063693,177,171,166
-2.2394335,0.8508714,3.088521,128,126,131
-1.479181,1.4309607,3.109529,255,252,242
-1.8892269,1.0379387,3.0996442,132,130,126
-2.4359248,0.49368465,3.0707076,150,150,158
-2.6258416,0.24023017,3.0601962,56,61,74
-2.788104,-0.0041489005,3.0495906,59,71,92
-2.8560205,-0.17038167,3.0454857,41,50,62
-2.5765073,0.014120221,3.0577707,131,129,125
-2.2968488,0.21730897,3.0733473,122,123,126
-1.928776,0.5825083,3.2302203,59,64,68
-1.784111,0.63169014,3.1108985,15,22,32
-1.5539784,0.8263295,3.101769,45,56,75
-1.3281476,1.0401915,3.1090465,151,145,140
-2.5698547,-0.6947727,3.0458946,110,111,115
-2.1075535,-0.18927944,3.071337,203,195,191
-1.5956333,0.60432,3.367447,236,237,241
-1.2330687,0.8885968,3.1091557,115,107,102
-1.6759284,0.27774832,3.337214,106,118,114
-1.0757608,0.9791591,3.1158385,166,161,157
-2.147875,-1.0242474,3.0561984,142,133,126
-1.671246,-0.31867397,3.0725799,178,168,162
-1.3028226,0.2586824,3.0911422,255,247,240
-1.0485947,0.66732043,3.1065204,134,129,127
-0.8856336,0.90565753,3.1028113,245,240,237
-1.4657321,-0.5514307,3.0755978,169,158,155
-1.1480687,0.052796245,3.0932498,162,152,151
-2.067957,1.381906,3.0921514,210,203,201
-1.9305913,1.4075557,3.100676,232,224,219
-2.5970592,0.9200235,3.0774875,144,142,147
-2.013802,1.2569335,3.1011295,177,172,170
-1.6688306,1.4530227,3.1115851,150,143,142
-2.6398113,0.6894374,3.0733852,130,127,129
-2.0758665,1.0515525,3.097539,193,190,188
-1.6701045,1.3172868,3.1054,249,241,235
-2.7936323,0.33125013,3.058648,79,85,98
-2.048878,0.8886752,3.0955558,86,84,87
-1.6755509,1.1586611,3.107418,245,236,229
-2.7732291,0.06950235,3.0572102,73,80,91
-1.888516,0.8327246,3.098288,106,107,111
-1.4063001,1.251279,3.1154718,198,193,188
-1.9634948,0.6096386,3.1164198,169,182,204
-1.3938138,1.1487933,3.1120467,174,166,161
-1.7471628,0.6768087,3.102552,17,27,43
-2.1801941,0.059347093,3.077292,175,169,165
-1.3076806,1.0542327,3.1163726,167,159,157
-1.4397602,0.80159587,3.1059418,36,48,65
-1.7680144,0.41626465,3.3476875,126,124,129
-1.2641101,0.8844708,3.111027,255,254,249
-1.4169891,0.5601988,3.1024132,224,215,209
-2.0750625,-0.6247784,3.0558553,179,169,160
-1.1882324,0.7379896,3.1107726,87,80,78
-0.9969418,0.9844564,3.1136317,114,108,109
-1.5627198,-0.18170959,3.0750036,219,209,203
-1.1428277,0.51480055,3.1008906,123,115,113
-1.8552179,-1.1215146,3.0525665,199,191,185
-1.200253,0.12871027,3.0860639,226,218,216
-1.875031,1.5797192,3.0992656,111,105,102
-1.6433325,1.6571813,3.1099675,143,138,136
-1.6198156,1.6306767,3.1082497,135,130,128
-1.900682,1.4164956,3.107026,210,204,199
-2.9258823,0.7099537,3.0634842,110,108,112
-2.238755,1.0969489,3.0944242,85,83,86
-1.8821146,1.2882946,3.1044116,231,225,220
-1.6165895,1.4308974,3.1140895,193,186,184
-1.4838765,1.4864402,3.102662,171,163,160
-3.0363166,0.23522747,3.0510848,98,98,104
-2.8877356,0.2667231,3.0519392,102,107,120
-2.7766337,0.2729138,3.0562983,185,182,182
-2.6849575,0.2659415,3.0610123,71,80,94
-2.8155828,0.061322093,3.0570385,72,73,77
-2.9547856,-0.16611469,3.0450654,113,115,119
-3.1727202,-0.48139155,3.0412176,179,173,176
-1.3407943,1.2596657,3.1160476,137,131,130
-1.3583078,1.189796,3.1119256,255,248,246
-1.3588872,1.1359982,3.1129432,187,182,180
-1.327344,1.114576,3.1126728,123,116,115
-1.2295573,1.1699172,3.1137762,182,176,175
-2.6370084,-0.6315931,3.0460901,216,210,210
-1.7056677,0.5914999,3.3463507,50,62,47
-1.6270306,0.6245567,3.3532772,242,239,239
-1.3756633,0.70826435,3.1044626,236,229,220
-1.1234081,0.99515116,3.1157281,154,149,146
-1.6625392,0.29514256,3.3243113,121,95,98
-1.0927949,0.88469976,3.1119819,158,151,149
-1.9185219,-0.60309243,3.0674849,214,204,198
-1.4812813,0.012788177,3.0805135,136,127,121
-1.168472,0.47226614,3.0972824,209,201,197
-1.8459871,-0.9876386,3.0542288,220,209,205
-2.3765597,1.3266197,3.090324,255,251,246
-2.862426,1.0146112,3.0655274,192,186,187
-2.732886,1.0258355,3.0675306,84,88,96
-2.683,0.9949967,3.074567,71,78,91
-2.842624,0.84127784,3.0667195,58,69,82
-3.0138876,0.6710154,3.0558794,82,87,99
-2.8253882,0.7192327,3.0655994,42,52,67
-2.6137016,0.7894555,3.0736167,96,101,113
-2.4520578,0.83335924,3.0769935,144,137,136
-2.523255,0.71766514,3.0736015,160,154,157
-2.5737207,0.6108338,3.0699384,161,155,156
-2.6709363,0.46322858,3.0679994,156,156,163
-2.6254873,0.41909426,3.06322,81,85,93
-2.668204,0.30273733,3.0607991,30,40,55
-2.6601582,0.22514504,3.0642748,68,78,95
-2.7063193,0.09532708,3.0619667,91,95,105
-2.4976876,0.19160855,3.0612988,92,95,104
-2.291058,0.30035046,3.0707855,185,182,182
-2.019393,0.50879776,3.1346276,86,93,106
-1.744246,0.69123566,3.093155,14,24,40
-1.5237596,0.85876226,3.1054883,31,42,60
-1.279062,1.0661308,3.1134567,239,232,230
-1.1642084,1.1358608,3.1088,206,200,195
-1.7992909,0.45334664,3.3159003,100,3,14
-1.5094302,0.5755421,3.1036901,43,46,61
-1.2178626,0.8753484,3.1077363,138,131,130
-2.1694577,-0.5394374,3.0601711,146,139,138
-1.2184129,0.71438,3.1037974,160,152,148
-1.7037883,-0.13221043,3.071395,28,35,27
-1.2508621,0.47921497,3.0964494,253,245,241
-1.7716553,1.7879394,3.1111307,164,157,155
-2.1408913,1.5458353,3.093346,211,202,197
-2.2213972,1.4689643,3.0885224,229,222,219
-2.9541988,1.0834471,3.0665956,156,157,160
-1.7886505,1.5970899,3.1088638,142,138,136
-2.4622831,1.2217829,3.087551,141,141,142
-3.6129959,0.56847847,3.0647764,136,134,137
-1.9579825,1.3980268,3.101795,198,192,186
-2.7847247,0.8899468,3.0725653,39,49,66
-1.6696062,1.4836822,3.1099288,72,68,68
-2.2011607,1.1234028,3.091712,181,175,176
-3.1294043,0.48740822,3.050604,94,101,112
-1.6495359,1.3796186,3.1086588,211,205,200
-1.9759226,1.1169051,3.0970373,97,99,105
-2.4105546,0.75987244,3.079648,76,76,81
-3.0265949,0.24587432,3.0548272,117,118,121
-1.5191848,1.3015959,3.1126626,152,145,143
-1.799356,1.0376227,3.1004958,144,141,143
-2.3532214,0.53292,3.0724835,94,100,108
-1.3117931,1.3324375,3.1000924,157,151,147
-1.670181,0.98515296,3.1043713,214,204,197
-2.2566373,0.39699727,3.0709658,125,126,129
-1.2641242,1.2464632,3.105671,151,146,144
-1.4852858,0.99030566,3.106122,176,167,161
-1.604274,0.8135632,3.10199,36,45,63
-1.5900924,0.76150346,3.1005564,48,59,78
-1.52795,0.7618062,3.105081,41,53,73
-1.5062559,0.7163056,3.1035466,30,41,59
-1.2898545,0.8936521,3.1072445,168,160,156
-2.642163,-0.8406447,3.0383818,133,130,131
-1.6769509,0.44767863,3.3070154,19,22,32
-1.2520144,0.723166,3.1028557,176,169,166
-1.4394484,0.3710436,3.0892634,168,156,151
-1.9446146,1.7482733,3.0940127,120,113,112
-2.982766,1.3171493,3.0765376,102,102,108
-1.6593432,1.7879516,3.102254,160,157,157
-2.1191924,1.5689443,3.1008673,173,167,162
-3.8936803,0.7802334,3.0240798,71,77,92
-2.447811,1.3509413,3.0937123,171,163,161
-1.7042174,1.6486081,3.1127367,151,144,142
-2.6516883,1.1655946,3.0815406,104,107,117
-1.7642717,1.5543134,3.1073136,255,251,245
-2.8397734,0.9681637,3.0715666,201,199,203
-1.8111038,1.4588342,3.105768,169,161,157
-2.9086149,0.81572855,3.0673103,82,84,89
-1.7543724,1.4142483,3.1070592,179,171,165
-2.6020904,0.8726678,3.0813563,149,148,153
-1.5598235,1.4537336,3.1130357,250,244,237
-2.074578,1.0879107,3.096898,183,178,176
-2.9480364,0.45720646,3.0581515,217,214,214
-1.5395136,1.3491414,3.1117501,138,131,129
-1.9037113,1.0477197,3.09681,193,188,183
-2.4693148,0.57768494,3.076593,149,151,156
-1.379489,1.3380497,3.105273,225,219,213
-1.6995418,1.0456645,3.102209,218,210,204
-2.3037343,0.49441722,3.0717237,121,119,123
-3.3701718,-0.47829342,3.048215,147,140,139
-1.6048021,0.9663328,3.102275,223,214,208
-2.424284,0.16139668,3.0645783,140,136,137
-1.4238875,1.0283312,3.10811,131,121,118
-2.313125,0.10458785,3.0669212,208,201,200
-1.3714402,0.9777628,3.108842,175,167,165
-1.9738245,0.40029153,3.2431424,62,77,107
-1.1857555,1.0622754,3.1043434,174,167,165
-1.5955005,0.6691384,3.2424645,113,118,139
-2.2840273,-0.32778013,3.0545323,149,144,142
-2.9430432,-1.1091262,3.1674213,86,102,133
-1.1499546,0.88457644,3.106834,158,151,150
-1.1473246,0.8239067,3.1061418,129,124,120
-2.0863605,1.7494303,3.064748,206,199,198
-3.0070531,1.4098415,2.9325666,118,118,125
-2.9571712,1.3721818,2.9271235,83,85,93
-2.950104,1.318392,2.9230137,61,65,73
-2.8280015,1.306958,2.9329572,76,84,95
-2.922022,1.2122667,2.9126976,42,52,70
-3.2534297,1.011901,2.8552792,119,122,129
-3.7286284,0.7312743,2.7839403,41,51,68
-1.5921519,1.6490605,3.0900855,152,144,140
-1.5627167,1.6271257,3.0872781,255,248,245
-3.5502446,0.56436396,2.777184,130,124,126
-2.7276158,0.9184522,2.8928213,114,114,121
-1.9720187,1.2746456,3.0077267,36,46,62
-1.4836323,1.5112324,3.0837007,230,226,226
-2.023109,1.176671,3.2459676,192,187,191
-1.6203072,1.3316255,3.0507023,177,168,163
-2.909052,0.38317716,2.8072538,162,156,150
-1.5389566,1.2823837,3.052251,203,195,189
-1.7535381,1.0584849,3.0025005,165,157,151
-2.1628711,0.6575955,2.914374,100,101,102
-1.4923725,1.143769,3.0385473,158,153,151
-2.4514718,0.22733414,2.836137,252,240,233
-1.5848293,0.9323704,3.0030107,201,192,186
-2.72827,-0.2559411,2.761768,125,115,107
-1.6756883,0.6951028,2.9697032,174,166,161
-1.213362,1.1045245,3.0516393,164,161,159
-1.7807388,0.4030676,2.9226108,141,134,132
-1.240267,0.9496893,3.0402708,112,106,105
-2.0429401,-0.12385261,2.8387122,93,82,78
-1.1407168,0.91962767,3.0347915,245,238,237
-1.4297135,0.43955156,2.9664867,148,141,139
-1.9854548,1.733418,3.1033876,243,235,229
-2.1065776,1.6543176,3.102755,149,142,141
-3.7710817,1.001802,3.0309405,88,95,105
-2.4954426,1.4341491,3.091681,232,227,224
-1.8191364,1.6654694,3.1103628,221,217,214
-3.136307,1.0805216,3.0668743,99,97,102
-2.039325,1.5041659,3.1047401,206,193,183
-3.662957,0.72975487,3.04534,112,112,119
-2.223294,1.3409982,3.0941107,174,168,167
-1.5764453,1.614223,3.1059828,161,154,152
-2.3708262,1.1784955,3.0879815,122,123,127
-1.6127424,1.529612,3.1094737,235,227,223
-2.450396,1.0360675,3.0791569,119,118,123
-1.552021,1.4927175,3.1110988,138,133,130
-2.2278736,1.0588076,3.0882215,162,158,157
-3.5300152,0.2110179,3.0421295,112,113,117
-1.8653874,1.1817443,3.097734,119,112,109
-2.7003646,0.5844691,3.0613694,148,147,146
-1.521385,1.3205752,3.111473,173,167,163
-1.8983126,1.0109258,3.094153,154,150,149
-2.5476449,0.48107916,3.0675159,96,97,101
-1.4170547,1.2690022,3.1137028,230,222,219
-1.9350004,0.8184626,3.0921206,145,139,140
-2.7639902,0.0809415,3.0538316,77,84,95
-1.4262943,1.1278121,3.1124206,136,130,126
-1.795604,0.75602686,3.0968583,18,30,49
-2.0263445,0.48882097,3.0975976,15,15,24
-1.7755075,0.64257,3.0983047,0,1,10
-1.6540132,0.68714476,3.0969734,22,32,50
-1.4100671,0.86195946,3.1018996,142,137,135
-1.259418,0.95947367,3.1091304,191,183,179
-1.2260623,0.9346409,3.105925,115,109,108
-1.139693,0.9705372,3.105885,143,136,135
-2.6570978,-0.898551,3.0359232,123,120,120
-1.7134194,1.9089651,3.1117444,228,220,214
-2.4381056,1.6577696,3.1126015,215,204,201
-2.9129765,1.4727008,3.0731304,124,121,121
-1.6687148,1.8319665,3.1055806,152,144,141
-2.1382384,1.6405854,3.103013,204,198,193
-2.9409118,1.3155587,3.0749137,211,206,204
-1.8167708,1.6863875,3.108433,166,161,159
-2.6189482,1.3395619,3.0803127,180,177,177
-1.6839595,1.673644,3.111755,220,212,208
-2.2883584,1.3838906,3.0950212,97,88,83
-3.4301722,0.83318484,3.0525749,137,136,141
-1.8395367,1.5007591,3.1062772,109,103,98
-2.510466,1.1397102,3.081811,109,105,105
-1.5089536,1.5868638,3.1047168,144,137,136
-1.9477246,1.3262042,3.1015134,174,168,161
-2.693508,0.8782538,3.0692868,69,74,85
-1.5309651,1.4710418,3.1136842,207,199,195
-1.9904242,1.1652966,3.0947552,132,129,129
-2.6999152,0.68699515,3.0700238,61,72,85
-1.4535024,1.4025848,3.1100864,125,120,115
-1.4493959,1.3635509,3.1097674,197,190,187
-1.404561,1.3494952,3.1072092,158,151,149
-1.3270421,1.3566108,3.0995417,170,163,162
-2.5973394,0.38335216,3.0680227,58,63,74
-2.1777458,0.6197356,3.0778053,251,244,242
-1.8039865,0.84783953,3.0982947,39,53,73
-1.4161537,1.1032242,3.1099162,153,148,142
-2.0454845,0.49773622,3.0778484,105,100,98
-2.1414075,0.3242077,3.0759926,120,118,122
-1.7142992,0.6283917,3.092286,11,21,39
-1.357089,0.89749837,3.107411,162,156,151
-1.1492991,1.0336341,3.106694,166,159,158
-1.1526144,0.9604353,3.112072,244,237,236
-1.6934125,1.9076359,3.1116896,175,171,169
-1.622163,1.8985603,3.0995717,244,239,238
-1.896883,1.7880381,3.1069672,178,174,171
-2.3558307,1.613583,3.0962248,144,136,130
-3.0026376,1.3632133,3.0718148,105,105,111
-1.681704,1.7600838,3.1142058,190,182,179
-2.0013125,1.6141584,3.1051981,142,136,130
-2.4309213,1.4151962,3.0916715,255,253,251
-2.8049262,1.2208092,3.076201,189,187,189
-3.230623,0.99005806,3.0647602,105,107,112
-1.6693099,1.5970508,3.1123786,214,206,204
-1.9526713,1.4338756,3.1009312,179,171,165
-2.4504828,1.1589726,3.084898,91,90,94
-3.1774275,0.7504325,3.0572886,80,87,99
-1.6323743,1.4678686,3.111072,218,210,205
-1.9196513,1.2763572,3.0986814,162,154,150
-2.3968177,0.9669214,3.0800066,159,157,159
-3.12696,0.49173826,3.0597765,87,90,98
-1.5930812,1.3306016,3.1100063,112,104,100
-1.8995972,1.0984818,3.0986803,128,123,120
-2.1246793,0.9010639,3.0884619,126,127,131
-2.3248303,0.7068228,3.078862,74,72,74
-2.321971,0.64314485,3.083047,148,147,150
-2.2155058,0.6489753,3.0837574,100,97,97
-2.0304961,0.718909,3.0907645,82,82,89
-1.8677287,0.7793358,3.0952423,25,35,54
-1.6076207,0.92628336,3.1040518,255,253,248
-1.2691376,1.1482222,3.1083498,210,204,201
-1.7309463,0.69418615,3.102205,12,22,41
-1.300519,1.0126922,3.1066432,194,187,185
-1.7895808,0.5353377,3.1524515,0,0,4
-1.1753747,1.0095325,3.1120667,172,164,162
-2.8437731,1.7446997,3.0709982,168,160,158
-2.389585,1.7932272,3.0994005,180,170,164
-2.5963173,1.705831,3.0905476,246,235,232
-3.0069659,1.5610023,3.073566,139,133,134
-1.6566904,1.8695731,3.1053798,245,237,235
-1.9004886,1.770912,3.106218,172,169,169
-2.2444189,1.6348194,3.097063,115,107,103
-2.5837786,1.4875946,3.0862637,147,140,141
-2.9976895,1.3030595,3.0708883,118,118,123
-3.4417307,1.0919126,3.0532756,117,117,119
-1.65323,1.6814322,3.1114528,255,249,246
-1.7730894,1.6010011,3.1079307,126,119,117
-1.9820323,1.4794894,3.0993855,207,199,196
-2.2569542,1.3213098,3.0899267,153,147,148
-2.5817935,1.128907,3.077733,223,216,215
-3.0218513,0.86817056,3.0577636,113,113,120
-3.3480623,0.64343494,3.0504007,132,134,140
-1.5481925,1.4765246,3.109425,110,103,101
-1.6572549,1.3806989,3.105925,181,173,169
-1.8432431,1.2362511,3.0966997,127,121,114
-2.0569777,1.0675857,3.0911918,15,12,14
-2.4687808,0.7683835,3.072707,221,214,211
-2.9155788,0.42409474,3.04923,89,98,112
-3.2878482,0.10988146,3.0458055,59,65,80
-1.3861203,1.2911983,3.1043057,163,159,156
-1.419419,1.2289468,3.110578,123,116,115
-1.4595118,1.1549375,3.1081853,224,216,212
-1.4798505,1.0920596,3.106588,99,91,87
-1.489506,1.0340513,3.1040905,241,234,232
-1.4472437,1.0169412,3.105638,192,184,181
-1.4167423,0.99050194,3.105883,255,245,242
-2.921441,-0.39612734,3.0359516,63,68,81
-1.6221356,0.68898624,3.0994647,24,34,53
-1.4788408,0.7407362,3.0942757,40,50,69
-2.438058,1.8234875,3.0951343,175,167,163
-2.9839559,1.6719115,3.0807295,248,240,238
-2.0618062,1.8305172,3.1037917,197,189,184
-3.6490705,1.4273188,3.059682,167,164,163
-2.3091962,1.7042348,3.0941997,201,189,182
