-1.6832641,-0.94785094,3.008908,51,70,96
-1.925015,-1.1952615,2.6096792,157,166,178
-1.8233836,-0.14021695,3.116932,172,190,213
-2.15451,-0.49557924,2.5889354,86,109,146
-2.2913365,-0.25457954,2.600216,87,110,147
-2.4830437,0.32234192,2.5917373,119,140,176
-2.5098364,-0.86620426,2.6132078,150,166,198
-0.7699599,-0.51987934,2.5348167,81,100,131
-1.3787009,-1.4605558,2.6015375,56,67,78
-1.2728791,-0.8743918,2.938457,30,45,67
-1.4143792,-0.9267986,2.7631626,30,52,75
-1.6200266,-1.1677527,2.5966587,112,118,126
-1.6324165,-0.9242027,3.0055845,52,71,96
-1.8760381,-1.2756231,2.6135392,168,176,188
-1.9347534,-0.3869586,2.5757694,103,121,152
-2.083423,0.7638697,2.5158014,136,154,183
-2.2335417,-0.604543,2.603829,76,101,140
-2.381867,-0.305681,2.6064978,87,111,148
-2.5815947,0.15140116,2.597938,103,126,163
-1.0476302,-1.1228445,2.5769343,108,128,162
-1.0036147,-0.7657039,2.5574455,81,103,136
-1.1853,-0.76884866,3.1126018,151,166,188
-1.3988094,-1.0763972,2.5865307,31,50,76
-1.6103089,-1.4156528,2.606542,172,178,188
-1.6904191,-1.3556647,2.6011827,143,145,152
-1.5922674,-0.81564856,3.2677953,93,126,168
-1.8881903,-1.4165955,2.6172807,173,180,193
-1.9891059,-1.4801819,2.6298037,159,166,178
-2.0813582,-0.81240916,2.5933442,137,144,152
-2.2014601,-0.56484365,2.5914237,76,103,141
-2.4117203,0.39752018,2.5540757,100,120,153
-2.4769273,-0.27855992,2.605602,100,124,162
-0.9131602,-0.9577706,2.560968,80,102,134
-0.96077204,-0.75225234,2.548137,83,106,142
-1.0917648,-0.7496612,2.5559752,77,100,133
-1.4274414,-1.3243172,2.6035895,29,52,80
-1.5168928,-1.2599933,2.5936964,154,160,168
-1.6015766,-1.1444435,2.5997226,66,75,87
-1.7453043,-1.3064938,2.603605,187,191,201
-1.8510876,-1.2971115,2.6080635,105,112,124
-1.9419203,-0.08739936,2.5694127,60,79,105
-2.1274757,-0.23680389,2.5781512,80,102,134
-2.2089074,-1.2260065,2.6181223,154,165,178
-2.3237374,-1.2515955,2.621002,58,69,84
-2.5270889,-0.8806319,2.6121638,170,191,221
-1.3184181,-1.6530437,2.595142,157,169,186
-1.3570764,-1.5410011,2.6035697,137,149,163
-1.229635,-0.8517823,3.069345,69,86,111
-1.3509728,-0.9040952,2.7972913,39,60,88
-1.5912218,-1.3877559,2.6006749,128,136,148
-1.6670934,-1.2307911,2.595682,117,122,128
-1.7347038,-0.9793434,2.668467,32,42,58
-1.7035981,-0.82119083,3.2987468,71,90,116
-2.021782,-0.9829643,2.5961678,170,176,185
-2.2348223,0.46720254,2.5503778,102,120,149
-2.2006567,-1.4218967,2.6316595,72,89,102
-2.290206,-1.4889734,2.6347382,143,151,165
-2.579109,-0.657645,2.5958643,218,232,252
-1.2781725,-1.5813787,2.6095276,82,104,136
-1.3143404,-1.455446,2.6012464,91,111,141
-1.4114923,-1.4735487,2.6031976,210,223,240
-1.29431,-0.76571155,3.2461486,78,100,130
-1.4762539,-0.9422035,2.6782966,38,59,85
-1.5551232,-0.9059162,2.9576025,55,76,104
-1.6154466,-0.8771503,3.2027075,52,72,98
-1.8789301,-1.1019931,2.5967658,230,245,255
-2.0088515,-1.0324895,2.5991225,171,178,190
-2.1022594,-1.3297119,2.6159096,156,162,177
-2.321935,-0.27928138,2.5965004,117,141,178
-2.4063013,-0.71273637,2.60263,149,164,193
-2.6191316,-0.2993238,2.617499,94,113,145
-1.1341454,-1.3560872,2.5830898,96,118,150
-1.2701521,-1.4612973,2.5986464,59,81,114
-0.9106213,-0.08144927,2.5052812,113,136,171
-1.4907742,-1.6073296,2.611796,191,198,210
-1.3608727,-0.8101888,3.2410398,93,114,141
-1.5900327,-1.1582761,2.5973516,175,179,187
-1.6932037,-1.0361857,2.5932612,12,21,30
-1.8214128,-1.0967717,2.5922904,215,218,226
-1.9570894,-0.51377606,2.5734587,114,133,159
-2.1313756,-0.15104806,2.5773196,83,106,139
-2.3882098,0.6012937,2.5422628,83,100,125
-2.6610887,1.0370607,2.54467,156,159,158
-2.6853857,0.16597176,2.589034,115,137,176
-1.1176425,-1.4899247,2.5901191,92,114,147
-0.73606956,-0.2309283,2.5134494,124,149,189
-1.0541129,-0.7569804,2.5458388,82,105,138
-1.2262594,-0.909714,2.725904,44,67,94
-1.3904239,-1.1106393,2.5901155,39,58,84
-1.5026087,-1.1293361,2.5922508,28,47,71
-1.5194283,-0.8747711,3.0543666,56,75,101
-1.7585018,-1.5521266,2.6202643,134,139,151
-1.8514147,-1.5030274,2.621376,180,191,204
-2.03604,-0.010356426,2.5694814,82,106,141
-2.0758018,-1.284246,2.6182885,139,148,163
-2.3269625,-0.37559175,2.5987253,60,79,105
-2.4616122,-0.48079467,2.6174884,85,110,147
-2.4247093,-1.2531416,2.6281815,158,164,183
-1.2421995,-1.6400077,2.602785,84,104,137
-1.0922225,-0.942312,2.5639815,80,103,136
-1.2046094,-0.9298656,2.564289,50,72,102
-1.2940711,-0.84796596,3.0379255,57,67,84
-1.4958658,-1.2128005,2.5988376,41,58,82
-1.5106283,-0.885283,2.9985423,55,74,100
-1.7140392,-1.2512383,2.6010334,131,137,142
-1.7185423,-0.93958235,3.0093355,36,53,74
-1.9234478,-1.457066,2.6198735,103,117,133
-2.0773232,-0.9852843,2.5997114,166,172,181
-2.2464805,-0.6737001,2.591498,38,53,67
-2.644314,0.47794366,2.5656304,127,143,175
-2.3581042,-1.3239787,2.6201048,140,148,160
-0.9008641,-0.83604574,2.5552328,85,108,141
-1.2404919,-1.5351808,2.6062243,54,73,104
-0.9713012,-0.25895596,2.5250576,127,151,194
-1.4175893,-1.5409844,2.6071193,145,148,162
-1.448472,-1.1708856,2.5928729,33,53,79
-1.4743603,-0.8791399,2.992735,59,78,104
-1.5601985,-0.868793,3.108477,51,67,91
-1.6326474,-0.85237265,3.234755,59,76,103
-1.9060249,-1.1732967,2.6026444,193,199,214
-1.9842484,-1.4657795,2.625109,174,181,193
-2.41493,0.39874995,2.5528014,109,127,158
-2.2067542,-1.3373134,2.621932,107,116,129
-2.3494072,-1.244715,2.6233556,167,173,189
-0.8888037,-0.84492993,2.5495346,84,107,140
-1.2574921,-1.646225,2.5848718,91,109,138
-1.3050694,-1.5240445,2.599207,41,60,91
-1.2273835,-0.7545283,3.2209163,128,162,205
-1.4144814,-1.0272629,2.5839386,42,60,83
-1.444368,-0.8452616,3.1192389,27,45,66
-1.5222154,-0.83553886,3.2476676,90,124,170
-1.6158508,-0.834111,3.2623491,55,75,101
-1.8873215,-1.2473564,2.6013196,167,172,183
-1.9993474,-1.2937403,2.6112094,146,151,163
-2.1256623,-1.2043784,2.6120052,153,166,184
-2.1916294,-1.3952458,2.6236706,154,162,178
-0.8932848,-1.1569481,2.5567188,66,86,119
-1.0462108,-1.2768962,2.5794315,96,118,150
-1.1333097,-1.2726686,2.5873923,49,70,98
-1.3030285,-1.6018589,2.5952294,25,41,66
-1.3718777,-1.505805,2.5964346,92,102,112
-1.3306345,-0.84347844,3.1095583,48,58,74
-1.5470182,-1.4668663,2.6094766,142,149,158
-1.6380788,-1.2858112,2.6023536,141,147,156
-1.7419684,-1.388535,2.6110418,143,147,155
-1.9113901,-0.7112241,2.5877874,70,89,115
-2.2604837,0.5801307,2.535563,118,136,167
-2.0573318,-1.3561363,2.6148353,185,194,208
-2.1097448,-1.5199375,2.6317897,158,165,176
-2.2411447,-1.4212937,2.6232104,155,160,173
-1.0318754,-1.3859766,2.5818148,68,89,117
-1.1389785,-1.4674385,2.5948515,71,92,122
-0.7317523,0.5245503,2.453682,133,158,194
-1.3037599,-1.4656017,2.6116428,86,105,135
-1.3044877,-0.8822634,2.880327,47,68,96
-1.4868622,-1.3932729,2.5999212,168,171,180
-1.5747743,-1.0886304,2.599008,1,20,43
-1.6923919,-1.1065462,2.598957,152,159,168
-1.7861586,-1.3988008,2.6149344,84,95,108
-1.8815081,-1.4938431,2.6226792,128,136,148
-2.1104321,-0.8904226,2.5964105,120,128,142
-2.2195623,-0.9669163,2.6104984,158,164,179
-2.3441834,-1.0065336,2.6178412,176,188,211
-1.0696983,-1.5929806,2.596313,132,159,194
-1.011877,-1.1095271,2.573176,104,126,159
-1.1986475,-1.4956844,2.6041412,70,88,119
-1.2483064,-1.3097954,2.5983763,66,88,121
-1.3877836,-1.5346766,2.5970354,161,171,187
-1.4481744,-1.1224415,2.5917704,36,55,79
-1.5607967,-1.022572,2.5908906,14,32,55
-1.679601,-1.0944121,2.5929809,159,169,180
-1.8034494,-1.0336232,2.5929677,168,170,181
-1.7640433,-0.86217904,3.171376,61,75,95
-2.063501,-1.0006564,2.6030304,131,137,146
-2.3665648,-0.3182943,2.6013637,75,100,139
-2.4277093,-0.6578646,2.6012592,75,87,108
-0.86338615,-1.0793333,2.558724,112,133,168
-0.8964535,-0.82228637,2.5513144,75,100,131
-1.1551825,-1.4624302,2.5941257,51,72,100
-1.2367283,-1.4363732,2.5994225,42,63,91
-1.2312517,-0.8086512,3.1485229,67,87,120
-1.3262669,-0.8162792,3.193678,0,17,46
-1.4287635,-0.86213756,3.167732,55,76,102
-1.5392072,-0.8759093,3.1049576,52,71,97
-1.7708626,-0.97067714,2.5983338,12,18,27
-1.706496,-0.8673942,3.23873,52,70,101
-2.2140152,-0.18521678,2.5703976,133,155,186
-2.0742543,-1.2885506,2.6135104,198,204,213
-2.223273,-1.1598082,2.6173577,159,166,178
-0.9449384,-1.4305205,2.5829601,83,106,132
-1.0142359,-1.3924448,2.5841622,43,65,95
-1.1415524,-1.581588,2.5914474,94,116,149
-1.1206573,-1.0463839,2.577855,95,117,149
-1.2591586,-1.2687874,2.5968888,46,67,97
-1.3279606,-0.91211724,2.7518067,33,54,80
-1.3986359,-0.86278415,3.0532713,58,77,101
-1.4989315,-0.8738072,3.064955,47,68,96
-1.624059,-0.93266153,2.959651,51,70,97
-1.803041,-1.2315996,2.6037734,189,193,204
-2.0660691,-0.4932437,2.5929968,95,117,151
-2.169534,-0.68928766,2.5975204,131,151,184
-2.371909,-0.4733913,2.6092176,55,75,108
-0.7159986,-0.85688686,2.5518317,103,130,168
-0.56575906,0.10737884,2.4919252,114,136,168
-0.9123093,-0.6691036,2.53889,98,127,166
-1.1316991,-1.1790948,2.5784252,63,86,113
-1.2614876,-1.3480849,2.597326,45,67,97
-1.3702748,-1.377125,2.6041512,70,88,117
-1.4682417,-0.9567368,2.623732,30,53,80
-1.519316,-0.8933873,3.0089808,49,70,98
-1.6707582,-1.4857845,2.6129875,189,197,212
-1.7685287,-1.5042787,2.616908,127,134,145
-2.13019,-0.4498844,2.5775795,93,116,153
-2.3898861,-0.043492317,2.6030955,143,168,208
-0.8117111,-1.3960056,2.5707245,153,179,219
-0.32041806,0.44226515,2.440446,155,174,200
-0.2536109,1.2929144,2.3599248,172,189,215
-0.7478881,0.040272832,2.501261,126,149,183
-1.1289788,-1.2661843,2.5848765,49,70,96
-1.1535765,-0.70270467,2.553471,81,109,141
-1.1953204,0.4722227,2.773499,165,175,183
-1.4351649,-1.380662,2.6017776,173,186,201
-1.5357777,-1.3463156,2.6006079,152,156,164
-1.5501659,-0.875484,3.128354,27,44,63
-1.7220857,-1.4463584,2.615148,158,163,175
-1.8510637,-1.2951481,2.6096256,188,193,203
-2.0620604,-0.93959665,2.5979085,199,203,213
-2.2256663,-0.82472944,2.5991905,165,175,194
-0.4064914,-0.045957208,2.4896827,120,138,169
-0.4238022,0.43643606,2.4518974,155,176,206
-1.0015343,-1.2713158,2.5746188,88,110,140
-1.0777969,-1.1699924,2.5739584,79,100,130
-0.94843495,0.62431276,2.4732916,100,123,150
-1.2984549,-1.0910394,2.5860066,36,57,82
-1.3232696,-0.85212994,3.1853213,62,81,105
-1.5256909,-1.3445516,2.6022153,156,160,170
-1.6139628,-0.9561839,2.8112457,38,59,86
-1.7228324,-1.4302144,2.6104107,142,148,156
-1.8845284,-1.1701767,2.6040792,142,146,158
-2.1085787,-0.81148434,2.5901098,138,143,155
-0.6546995,-1.069056,2.5421147,77,100,133
-0.7391212,-0.9739437,2.5499568,56,79,112
-0.8976486,-1.1802118,2.5655973,64,86,115
-0.9944738,-1.2023008,2.5735502,59,81,113
-0.9507158,-0.4185984,2.535492,90,113,140
-1.1084723,-0.5635767,2.5543017,62,88,119
-1.2335619,-0.8744292,2.9444544,63,84,110
-1.2985406,-0.81373715,3.182118,11,35,63
-1.5080839,-1.4182622,2.6055694,162,164,170
-1.6214312,-1.3218913,2.6046321,21,25,33
-1.7779422,-1.0346651,2.5930712,157,159,164
-1.9139624,-0.9986894,2.5963135,153,158,163
-2.1517515,-0.5983002,2.596283,110,131,167
-0.31624037,-0.17186058,2.486446,163,181,210
-0.48614812,-0.22773659,2.5011578,123,144,178
-0.73995996,-0.6460986,2.5362206,41,63,93
-0.8513675,-0.62411594,2.5438414,83,107,137
-1.1211984,-1.4346256,2.594599,96,117,146
-1.1650171,-1.1182783,2.5802784,95,116,144
-1.2681842,-1.0120738,2.5817025,59,78,102
-1.2577161,-0.71477103,3.2927742,75,108,144
-1.5104153,-1.0965967,2.5982227,21,39,61
-1.5458975,-0.9096081,2.9447305,54,73,102
-1.714463,-1.3460748,2.6054945,154,159,165
-1.6652526,-0.90958357,3.1901355,54,73,99
-2.1353402,-0.5632601,2.5802944,137,158,194
-0.82661974,-1.5486023,2.5793393,103,126,159
-0.19764668,0.68844545,2.4225733,158,177,203
-0.9702499,-1.5071049,2.5837514,150,174,205
-0.9895644,-1.259865,2.5760913,85,107,137
-0.7248318,0.7428651,2.4435747,153,177,208
-1.1572286,-1.141248,2.5814316,87,105,134
-1.2885202,-1.4960704,2.606242,46,64,93
-1.2444198,-0.7518904,3.238585,102,133,172
-1.4896348,-1.1412568,2.59671,29,46,71
-1.511818,-0.89348865,2.9850364,51,72,102
-1.6826115,-0.9847698,2.7701318,31,49,73
-1.7916374,-1.360348,2.6135297,173,179,186
-1.9132257,-1.3236473,2.609007,179,185,198
-0.76094854,-1.4383404,2.5759733,79,106,142
-0.63380724,-0.7913189,2.536774,72,98,132
-0.6325665,-0.4031167,2.514497,109,134,171
-0.5157758,0.6270242,2.4429643,139,164,198
-0.830706,-0.107275486,2.5059059,126,149,182
-1.1219078,-1.154268,2.5781314,60,84,117
-1.1503127,-0.37580562,2.5451722,78,106,137
-1.2778504,-0.8975687,2.7789514,37,58,84
-1.4312124,-0.91299343,2.6087248,0,1,17
-1.4038683,-0.8600013,3.1678958,64,83,109
-1.6820414,-0.97249985,2.6103754,95,124,166
-1.8000329,-0.99362636,2.5895367,183,185,191
-1.8776116,-1.1439495,2.598614,188,193,206
-1.9195173,-1.4312854,2.6208956,204,210,219
-0.42566204,-0.38350487,2.5027494,97,115,144
-0.7163128,-0.92533946,2.5429745,62,85,118
-0.6448655,-0.24782431,2.5082326,114,137,171
-0.64076096,0.4078138,2.46,137,160,193
-0.8310996,0.24822342,2.4928918,150,176,210
-1.0005091,0.14189708,2.510119,133,158,190
-1.2480385,-1.2060895,2.5941782,35,54,80
-1.2396173,-0.841161,3.1094482,75,94,117
-1.4618884,-1.1798172,2.6026478,33,52,76
-1.5999215,-0.972728,2.5963106,19,39,64
-1.5622581,-0.8884635,3.0651064,50,68,97
-1.7575438,-1.4340348,2.6120214,83,98,112
-1.6824194,-0.7807033,3.3100908,97,133,186
-0.663361,-1.2156751,2.5582309,105,132,170
-0.06487122,0.9863672,2.382895,160,177,202
-0.87066543,-1.3322337,2.5716543,90,112,142
-0.8532424,-0.8873608,2.5485651,45,68,101
-0.89557946,-0.54583955,2.5384011,78,104,135
-0.99485505,-0.39549947,2.540657,87,111,142
-1.1507926,-0.7323847,2.5646567,61,86,117
-1.2084519,-0.8616357,2.946365,132,155,181
-1.2715731,-0.8487725,3.1212382,64,85,111
-1.4908918,-1.3720396,2.6059406,149,151,157
-1.5974537,-0.9593718,2.7437181,15,34,60
-1.7364445,-1.1636183,2.6016643,129,136,145
-1.7246566,-0.95103693,2.9798155,46,63,90
-0.6728161,-1.4370666,2.5675986,140,164,201
-0.74001956,-1.3430836,2.570605,107,134,171
-0.80316067,-1.2526944,2.5674357,86,110,139
-0.8741076,-1.1899416,2.5641794,80,102,132
-0.946053,-1.09934,2.567338,98,119,147
-1.0505757,-1.1811314,2.580103,82,104,136
-0.9691509,0.8532575,2.4484096,127,149,173
-1.2447661,-1.1510661,2.5906239,90,110,130
-1.355226,-1.3633938,2.6129732,54,73,97
-1.3160837,-0.7714596,3.2555785,115,152,198
-1.4226758,-0.86900496,3.2055316,55,73,102
-1.5074875,-0.8324795,3.2558515,93,120,164
-1.9293289,-0.8116789,2.6096277,17,29,49
-0.4024744,-0.6890991,2.5208282,96,118,150
-0.34642792,-0.13007271,2.4933882,120,138,167
-0.85014594,-1.518862,2.5739808,177,197,232
-0.8972341,-1.4041498,2.5793352,86,109,136
-0.989094,-1.47914,2.5844128,66,88,117
-0.913334,-0.27415013,2.525089,124,147,175
-1.1230153,-1.2092762,2.5835032,63,81,110
-1.2035016,-0.73763037,2.5644145,61,84,111
-1.1954343,-0.77033854,3.1742284,111,135,153
-1.4374657,-1.082351,2.594788,18,36,59
-1.4031663,-0.8518729,3.128767,28,43,63
-1.6715773,-1.1009848,2.5961804,148,153,163
-1.5796871,-0.8923416,3.1628516,23,35,57
-0.6310748,-1.4994059,2.5726395,115,141,173
-0.70771366,-1.4524131,2.576428,122,147,176
-0.67779547,-1.0853674,2.5544057,62,85,117
-0.6168202,-0.44345212,2.5206017,92,114,146
-0.63792634,0.080972314,2.4895387,138,161,192
-0.80439174,-0.055425048,2.506558,143,166,199
-0.9538033,-0.15167046,2.5283809,114,140,172
-1.111402,-0.5561149,2.5565376,72,97,128
-1.2335663,-1.3277559,2.601585,51,72,100
-1.353085,-0.8862636,2.584297,18,28,38
-1.3551817,-0.8638296,3.0098295,51,68,95
-1.5189729,-0.9269619,2.8410435,50,68,97
-1.4713686,-0.80100584,3.2788355,91,121,164
-1.6302235,-0.9035258,3.0892794,49,66,95
-0.6244947,-1.3674016,2.5689292,121,147,179
-0.26557916,0.14696443,2.466806,109,127,156
-0.47197068,-0.09459281,2.49066,154,176,208
-0.63922656,-0.24817216,2.5051966,90,114,145
-0.8265159,-0.61985946,2.5449336,117,140,165
-0.9842086,-1.0250883,2.567267,67,86,110
-0.99609447,0.58843625,2.4738405,130,154,182
-1.1819097,0.40330362,2.5076475,45,61,79
-1.245444,-0.8952234,2.816955,53,72,97
-1.3944439,-1.2514975,2.6088586,38,57,81
-1.4838865,-1.4049821,2.6075168,137,136,140
-1.5382421,-0.90585184,2.9665947,50,68,98
-1.5598779,-0.8825531,3.1485152,31,43,65
-0.42729503,-0.9437647,2.5391402,111,134,167
-0.27218264,-0.042532563,2.4820704,111,130,161
-0.4124409,-0.059019923,2.48113,124,145,175
-0.7659049,-1.1106977,2.560295,78,100,131
-0.6322868,0.3775202,2.4682558,110,135,156
-0.9256089,-0.8585527,2.557969,70,94,121
-0.9674208,0.3509736,2.4866383,137,159,190
-1.142439,0.2566626,2.5003839,141,160,183
-1.2839559,0.47532105,2.6651945,149,159,169
-1.3808085,-0.9467006,2.600479,28,47,73
-1.4334352,-0.91675854,2.8289514,44,62,91
-1.5802376,-1.2328556,2.6042228,158,155,158
-1.7031724,-1.2067754,2.603523,116,116,122
-0.47071105,-1.1885684,2.5526268,151,175,209
-0.14928517,0.4163972,2.4494562,127,145,172
-0.526434,-0.52250314,2.5182328,97,117,145
-0.7875626,-1.2946742,2.5685036,77,101,132
-0.80100644,-0.76490617,2.5502477,77,102,133
-0.92184806,-0.8283086,2.5519469,79,103,130
-1.0392438,-0.9661586,2.5689256,63,84,110
-1.1645224,-0.35171318,2.5423667,84,108,138
-1.193234,-0.83945465,2.9231687,110,131,159
-1.3661615,-1.2378621,2.605335,38,57,81
-1.3321362,-0.8456819,3.2006972,53,72,98
-1.4877708,-0.88030434,3.0553224,66,79,106
-1.6799967,-1.3392563,2.5997329,149,153,163
-0.04211685,0.41568542,2.4394033,120,136,160
0.028480768,1.2947073,2.364246,164,182,205
-0.6910084,-1.243145,2.559987,79,105,139
-0.75092983,-1.1106772,2.5569453,60,82,112
-0.86671364,-1.332696,2.5777845,90,111,139
-0.89403737,-0.5286443,2.5396938,98,122,150
-1.0308415,-1.2586682,2.5803452,71,91,119
-1.1246278,-1.1072681,2.5830703,63,80,105
-1.205396,-1.336323,2.6064172,39,58,84
-1.3852445,-0.89712286,2.5935874,24,31,43
-1.4432095,-1.2622781,2.6113126,67,82,107
-1.412785,-0.8669269,3.170693,57,74,103
-1.4769262,-0.8506837,3.2519855,90,116,158
-0.36207616,-0.7077277,2.5247931,90,112,143
-0.5110501,-0.8965571,2.53442,99,120,148
-0.59637624,-0.8436167,2.5363019,79,100,127
-0.67990786,-0.744406,2.5391357,71,98,132
-0.781098,-0.7166183,2.540132,73,97,127
-0.9102653,-1.0513241,2.5618725,100,121,149
-0.9785342,0.9949768,2.4337487,136,157,183
-1.0994347,-1.1794062,2.5814922,74,92,121
-1.1883628,-1.2513633,2.5936923,73,92,118
-1.2694192,-0.88179564,2.8966951,36,51,73
-1.4379463,-0.92928934,2.7266848,29,48,74
-1.504961,-0.9248307,2.8591619,51,68,97
-1.6017983,-1.3552856,2.603812,23,35,43
-0.51100045,-1.3730936,2.5577877,209,233,255
-0.14892474,0.45250618,2.437193,134,153,178
-0.44966716,-0.27282166,2.4961925,77,99,128
-0.70374775,-1.1056664,2.5550175,152,174,199
-0.7586392,-0.7355008,2.5438275,79,105,137
-0.868021,-0.6546464,2.5437102,72,96,125
-0.98631203,-0.59747624,2.5503852,61,85,113
-1.0960326,-0.92948747,2.5715733,74,96,125
-1.2757468,-0.28124166,2.5453568,58,81,107
-1.3443712,-1.0086081,2.5904238,26,43,64
-1.2856576,-0.79492164,3.2112007,58,74,99
-1.3658737,-0.7519491,3.2977898,74,89,110
-1.6603479,-0.9647255,2.78864,44,57,82
-0.32431602,-0.52238774,2.5126908,111,134,167
-0.54516506,-1.041415,2.547905,68,94,126
-0.690245,-1.3789203,2.5615306,113,139,174
-0.7010281,-0.8101535,2.5428753,59,85,118
-0.78168905,-0.4261644,2.524799,92,118,148
-0.9216368,-0.850724,2.5535078,65,89,116
-1.06747,0.06790984,2.5125132,127,152,183
-1.1916264,0.53445077,2.8245966,216,167,191
-1.2310464,-1.1353631,2.5958605,111,129,152
-1.2160442,-0.7198684,3.267624,142,173,211
-1.324863,-0.8583293,3.1622963,64,81,107
-1.4473667,-0.8532157,3.1203327,31,43,64
-0.35286397,-1.0506747,2.5476995,101,129,167
-0.46476907,-0.94924307,2.5380201,61,85,114
-0.24183512,0.7666346,2.4147577,148,170,201
-0.6423962,-0.871912,2.5414925,72,94,123
-0.6828593,-0.1886661,2.5038486,95,121,153
-0.81432915,-0.008826613,2.4993668,122,147,184
-0.9630799,-0.02380383,2.5165315,124,152,182
-1.0601126,-0.97298217,2.569953,108,130,154
-1.1303182,-1.2754016,2.5941553,37,56,81
-1.2205515,-0.88656855,2.871862,53,73,99
-1.3524984,-0.39297652,3.137221,189,201,220
-1.4582419,-1.2698455,2.6086411,27,42,64
-1.4058609,-0.8239918,3.2484121,96,124,168
-0.48974776,-1.3523695,2.554768,107,130,163
-0.18927741,0.49335277,2.4426856,132,154,186
-0.40160036,0.12614965,2.4762552,114,136,168
-0.6459541,-0.7641878,2.540702,74,99,130
-0.66918176,0.4279455,2.4696743,134,162,200
-0.8698697,-1.333606,2.5748887,80,98,127
-0.9744364,-0.7636497,2.5572248,69,92,119
-1.0814586,-0.9596379,2.5663636,54,76,100
-1.3336766,-0.057362795,2.5273056,59,84,108
-1.2097732,-0.8357661,3.0671232,101,120,151
-1.3748487,-1.2963755,2.6086874,31,49,72
-1.4755298,-0.9064648,2.905321,163,192,232
-1.510972,-0.86522675,3.1071708,50,64,92
-0.2910849,-0.2617011,2.4995286,124,146,177
-0.40214437,-0.23532951,2.4924958,98,120,150
-0.58457685,-0.7048559,2.536525,83,105,135
-0.73892117,-1.3154814,2.5728796,67,91,122
-0.80354226,-0.90175486,2.5497932,52,74,103
-0.9085132,-0.56999516,2.5452192,95,119,149
-0.9952431,-1.1413517,2.5775933,79,99,127
-1.2637697,0.2944957,2.5047894,105,129,158
-1.1925783,-1.1660299,2.5960126,72,86,112
-1.3272873,-0.32589126,3.121589,199,205,212
-1.4138799,-1.2238522,2.6098728,32,48,71
-1.6236734,-0.9897473,2.600247,10,25,39
-0.32698005,-0.7283871,2.5266528,99,120,150
-0.2766227,0.12260544,2.4689023,108,130,162
-0.5939692,-1.0929618,2.551712,112,138,170
-0.58147115,0.119423866,2.4829173,102,126,156
-0.73298204,0.07411492,2.4907126,160,184,214
-0.86439645,-1.0669756,2.5667892,97,116,143
-0.96477985,-0.9605346,2.5631943,56,77,103
-1.036467,-1.2382488,2.5828168,82,99,126
-1.1576751,-1.0744193,2.583776,94,111,137
-1.2570589,-0.8950536,2.8186805,38,56,77
-1.2512745,-0.8135185,3.1634283,37,56,81
-1.4721088,-0.92256355,2.8377619,49,66,93
-0.35732597,-1.2369475,2.5496366,182,205,228
-0.37508112,-0.6438699,2.520964,109,130,160
-0.34532976,0.254184,2.4645488,96,120,149
-0.52252495,0.00663352,2.4862933,119,141,171
-0.68306977,-0.33840227,2.5229526,89,115,146
-0.81067264,-0.4959488,2.5357094,70,93,119
-0.9562601,0.04862833,2.5077136,117,145,177
-1.1056746,0.037585974,2.5162618,134,160,194
-1.2142036,-0.25579667,2.5406249,44,67,94
-1.1571838,-1.2712939,2.5964954,35,52,76
-1.2024595,-0.7981093,3.1347244,72,90,119
-1.260815,-0.79651546,3.212501,63,77,103
-1.3423268,-0.8140075,3.215677,32,53,83
-0.40654075,-1.2477977,2.5539033,95,117,147
-0.23990119,0.06641102,2.4658394,99,119,151
-0.3831877,-0.03222239,2.483395,96,118,148
-0.53930086,-0.33223987,2.5055366,97,120,145
-0.64596784,-0.20554626,2.5069523,84,111,139
-0.7632644,0.13119936,2.4896646,116,142,174
-0.89734864,0.01196599,2.5039854,119,148,180
-0.9475838,-1.0304072,2.5685518,54,76,99
-1.0528849,-0.9523797,2.5694337,55,76,102
-1.2254809,-0.5512519,2.5612452,39,63,90
-1.2192312,-1.09795,2.5910327,21,39,60
-1.3681262,-0.9194813,2.6068301,28,46,67
-1.3480673,-1.2854424,2.605051,44,60,84
-1.3046645,-0.7592361,3.269029,56,75,101
-0.3784334,-1.1587188,2.5485973,112,137,174
-0.14071932,0.5408461,2.438624,140,166,200
-0.28724885,0.54957116,2.4378846,147,170,204
-0.4985932,-0.062407732,2.491831,143,169,203
-0.64809865,-0.5240011,2.5287416,86,108,138
-0.756426,-0.86232114,2.5482898,74,100,132
-0.8483999,-0.8417151,2.5517995,47,71,100
-1.0654494,0.46304202,2.4901786,11,29,48
-1.0452025,-0.83270144,2.5648048,51,74,99
-1.1420883,-0.87803817,2.5697675,44,65,93
-1.2131205,-0.8936944,2.6656914,61,79,108
-1.3317,-0.9713824,2.5862164,11,26,46
-1.3791206,-0.91932034,2.7534509,43,58,82
-1.5056807,-1.0466869,2.599703,17,31,51
0.03375627,0.7236769,2.4254217,150,173,206
-0.34380662,-0.5469315,2.5135257,89,112,144
-0.50115615,-0.9847605,2.5451808,54,78,109
-0.44709915,0.71769667,2.4366796,135,161,192
-0.64494854,-0.28642583,2.5159984,102,126,157
-0.75595117,-0.82570887,2.5514007,57,82,112
-0.8351809,-1.0622613,2.5637054,87,108,136
-1.0021963,-0.30201125,2.538222,79,104,135
-0.9855635,-1.2094293,2.574329,63,78,106
-1.3189901,-0.039344788,2.530911,52,75,102
-1.1830133,-1.1108284,2.591563,73,88,112
-1.1953144,-0.8227432,3.0558999,98,116,145
-1.2196913,-0.73474646,3.268626,62,76,102
-0.2529778,-1.1149771,2.5354905,94,119,150
-0.088454545,0.7071105,2.4175348,154,178,209
-0.46103513,-0.9037266,2.5377424,119,140,168
-0.5229555,-0.57167697,2.5230353,69,91,120
-0.6200006,-0.27745652,2.5061615,108,135,169
-0.7555722,0.6640949,2.456406,141,168,202
-0.82333887,-0.9045613,2.554639,65,87,117
-1.0343524,0.48932338,2.7849634,216,228,234
-1.1368568,-0.21195984,2.5336888,55,78,104
-1.5101029,0.8267507,2.499906,87,105,126
-1.6188763,0.5417143,2.5328436,78,95,115
-1.2548776,-0.55761385,3.084133,116,130,150
-1.3260193,-1.1966307,2.5994725,38,53,75
-0.2353695,-1.0133204,2.534122,149,175,209
-0.24413884,-0.2547021,2.486627,107,131,162
-0.46581948,-1.1038873,2.543521,80,104,141
-0.5263382,-0.8706794,2.535814,116,137,163
-0.6150111,-0.7686863,2.5367491,64,86,116
-0.71850896,-0.38895655,2.5213966,79,104,133
-0.9153844,0.8393444,2.4582713,123,147,176
-0.8695247,-1.1044636,2.5632644,44,62,90
-1.1812001,0.23514855,2.5128515,97,116,142
-1.1186106,-0.7715788,2.5646322,52,71,97
-1.1893983,-0.90046954,2.572723,32,51,75
-1.2862666,-0.4206822,3.057821,86,101,125
-1.3765359,-0.3577838,3.1326222,190,207,232
-0.2120615,-0.8218956,2.5207138,79,101,132
-0.3354134,-0.8998854,2.5320396,77,104,138
-0.2688579,0.3285687,2.4523344,115,137,167
-0.493105,-0.8021121,2.534079,70,91,117
-0.53921884,0.6803446,2.4421391,156,183,217
-0.6805417,-0.20671785,2.5107327,97,125,156
-0.7870604,-0.34881282,2.522948,95,120,152
-0.90264356,-0.29553246,2.5252323,84,107,134
-1.1178018,0.28740466,2.5049217,107,126,150
-0.97378564,-1.1198077,2.5807965,78,95,122
-1.5597522,0.7669267,2.4958913,78,96,117
-1.35164,-0.4469061,2.623978,29,49,68
-1.1853017,-0.8126664,3.0405653,122,141,165
-1.2972285,-0.87366104,2.9240966,47,59,80
-0.28537363,-0.88354397,2.5276039,84,110,142
-0.2765351,-0.030652165,2.4810445,93,115,147
-0.39122134,0.26190925,2.4671264,115,138,172
-0.54824954,0.15714097,2.4793372,93,120,154
-0.7245927,0.9509298,2.4308684,129,152,185
-0.7411636,-1.0166767,2.5602794,47,68,94
-0.8674394,-0.6889801,2.5500627,72,94,124
-0.9598334,-0.7554505,2.5528522,80,101,129
-1.063107,-0.747031,2.5592525,54,73,99
-1.582941,0.66738784,2.50525,45,63,84
-1.3252428,-0.39005852,2.8260562,98,117,143
-1.2881085,-1.031935,2.5938191,22,37,59
-1.2196156,-0.760555,3.2021894,121,151,195
-0.24520868,-0.6400895,2.5093708,71,92,122
-0.30055684,-0.32487726,2.5005023,75,97,129
-0.3850723,0.010887623,2.4871345,71,95,125
-0.49926114,0.5068772,2.455125,139,165,201
-0.6134123,-1.0072424,2.5529268,37,57,86
-0.7528069,-0.16394079,2.510181,84,112,144
-0.7974491,-0.7718024,2.5517805,129,151,181
-0.91408384,-0.65420294,2.5466132,54,78,108
-1.0311681,-0.59238553,2.5541143,111,128,153
-1.4959997,0.63691413,2.497231,98,117,140
-1.9438827,1.4274011,2.4639063,118,121,113
-1.2816274,-0.5018573,2.9069352,97,114,139
-1.2291,-0.88078094,2.8732765,54,69,93
-1.4221787,-0.8998432,2.6396637,36,49,72
-0.17876443,0.25923526,2.4597254,93,111,138
-0.39181107,-0.77300096,2.525983,88,110,143
-0.44593662,0.05387032,2.4793873,89,115,148
-0.58780295,1.492189,2.3792872,33,52,74
-0.66943413,-0.4374838,2.5246446,77,100,133
-1.0077167,1.7095748,2.383191,153,174,202
-1.2347257,1.8393508,2.3755968,92,107,130
-1.0925496,0.0978179,2.5165129,50,75,103
-1.0566262,-0.5697391,2.558051,50,71,97
-1.7207203,1.2090412,2.4516802,67,82,104
-1.1275809,-0.9507518,2.5813007,38,56,79
-1.2854736,-0.64431167,2.7098508,90,109,135
-1.1811001,-0.7851417,3.017101,128,144,166
-1.3127562,-0.8982198,2.7715802,45,58,81
-0.24630189,-0.73359466,2.5181043,94,115,145
-0.30852538,-0.24514163,2.4942148,98,119,149
-0.3807497,0.5965172,2.444831,123,150,188
-0.52252036,-0.6968272,2.5350783,102,123,149
-0.65846103,0.21039248,2.4847004,72,100,132
-0.6941896,-0.7757132,2.5467136,58,81,114
-0.9120847,0.09323418,2.5057693,113,139,169
-0.9569479,-0.38781476,2.5374615,68,92,123
-0.98523986,-0.74381924,2.5591214,38,59,87
-1.3810688,0.19288623,2.5295844,104,131,165
-1.1215657,-0.9490428,2.5791025,47,65,88
-1.2788951,-0.52858186,2.8749738,104,121,148
-1.2461443,-0.91160727,2.7666597,56,69,94
-1.2026441,-0.79097176,3.1578774,73,87,114
-0.09384167,1.2643986,2.3714638,157,178,206
-0.3771537,-0.6062596,2.5175047,84,105,133
-0.4538684,0.36702967,2.4618325,120,147,183
-0.5724346,-0.026383638,2.4935389,56,78,109
-0.7044752,0.21605957,2.4859824,131,157,191
-0.8178296,0.095155,2.501156,116,143,177
-0.86078596,-0.39982772,2.531871,84,108,137
-1.0270816,-0.15539813,2.527333,75,99,129
-1.1485064,-0.18293822,2.535489,77,98,125
-1.2046002,-0.4110446,2.5521908,40,61,87
-1.4197043,-0.1611439,2.5516276,62,75,92
-1.3730432,-0.10250664,3.0709996,182,189,204
-1.1824468,-0.83559465,2.957193,85,102,128
-1.2485461,-0.86028504,2.9765341,64,77,100
-0.3160752,-0.8691437,2.5324817,148,171,204
-0.37519145,-0.48243237,2.5154412,76,95,121
-0.46503884,-0.90080166,2.5338554,44,62,91
-0.5737235,0.015862823,2.4881468,94,116,146
-0.8099657,1.4568261,2.39644,111,130,156
-0.6838957,-0.87627196,2.54713,91,108,137
-0.81198525,-0.5814605,2.5441914,119,140,168
-0.9793427,-0.24572754,2.5328295,74,98,126
-1.2427856,0.5886086,2.8309505,218,142,173
-1.3750771,0.27952015,2.5141068,80,106,138
-1.7044171,0.788909,2.509268,71,90,116
-2.3482287,1.9592667,2.5314512,227,244,246
-1.312073,-0.3375783,3.0256677,91,106,129
-1.2098496,-0.69000316,3.0515585,118,133,157
-1.3332219,-1.0536454,2.5998058,32,44,63
-0.29454625,-0.5064554,2.5066583,78,102,133
-0.373766,0.07804322,2.479853,92,114,146
-0.46623152,-0.89065194,2.531643,114,129,158
-0.66537976,0.89959365,2.4348516,140,164,195
-0.7492199,0.27005863,2.4802775,126,152,186
-0.75956845,-0.47416592,2.5367308,65,85,113
-0.961396,-0.019386768,2.510501,91,117,148
-1.0957284,-0.01055944,2.5191135,86,115,153
-1.4961803,0.78286767,2.4996238,107,126,151
-1.0214219,-0.9408262,2.5857005,41,57,81
-2.2603312,1.7102228,2.5118163,163,157,151
-1.3135477,-0.32260895,3.0105424,99,114,138
-1.2447536,-0.5778451,3.0747216,108,121,144
-0.15071768,-0.07140517,2.478208,87,108,138
-0.30037028,-0.68084145,2.5236545,56,78,108
-0.38105738,-0.50927424,2.5157375,75,94,120
-0.49482107,0.0653975,2.4806085,85,109,143
-0.6212838,0.2378943,2.4729648,134,161,197
-0.8929688,1.4149326,2.4076304,114,133,159
-0.7005104,-0.70140433,2.547494,57,81,111
-0.86445045,-0.3286798,2.5359688,76,102,134
-1.1640234,0.6388931,2.8229804,186,110,140
-0.9338285,-0.7598016,2.562405,44,65,93
-1.4603971,0.4275825,2.518341,100,122,152
-1.9795859,1.2860856,2.460655,42,53,70
-1.1805388,-0.8282938,2.5794911,16,36,60
-1.2818075,-0.4643607,2.962756,90,105,130
-1.2247256,-0.8887222,2.793458,70,83,109
-0.25294906,-0.77736425,2.5261254,65,89,120
-0.30646938,0.85320365,2.4163163,131,156,193
-0.44124198,0.64107203,2.4442625,121,149,188
-0.4801085,-0.6276245,2.529661,67,90,123
-0.62764883,-0.015424252,2.4926307,87,111,140
-0.8450984,0.6732578,2.4575045,72,97,126
-1.0764421,1.0997962,2.447144,95,115,143
-0.9264296,-0.18207824,2.5254116,81,105,134
-0.9549725,-0.46148372,2.5423348,69,89,115
-1.3078479,0.22770178,2.518931,113,138,169
-1.1926402,-0.40160632,2.5509918,27,48,75
-1.3318969,-0.3351705,2.5567844,39,57,80
-1.3295768,-0.29362988,2.8879933,95,111,136
-1.2794698,-0.4387641,3.040326,91,104,129
-1.2025017,-0.7003739,3.0663357,120,135,159
-0.24052739,0.3453623,2.4591823,106,128,160
-0.34126735,-0.57552195,2.5207863,79,100,130
-0.44673628,-0.07088423,2.4899573,80,103,136
-0.6598032,1.0519364,2.4207435,124,145,172
-0.53956264,-0.81660175,2.5233817,64,81,108
-0.9511137,0.9316297,2.458624,113,134,164
-0.9128537,0.10104656,2.5012372,136,160,187
-1.1435648,0.6302347,2.8282475,225,155,188
-1.2186463,0.43152344,2.8075867,104,110,114
-1.780638,1.2517712,2.4416947,90,105,128
-1.0067933,-0.8656118,2.567411,37,56,79
-1.1943531,-0.6597307,2.5658102,30,50,75
-1.3211833,-0.3275106,2.9095201,94,108,134
-1.2711278,-0.52404475,2.9779732,95,108,133
-1.3388331,-0.94710827,2.5667176,28,42,59
-0.30112988,0.59350073,2.4427428,131,158,196
-0.48926908,1.5455177,2.3720984,137,154,180
-0.46825516,-0.35651803,2.5058393,74,92,121
-0.6628997,0.2906772,2.4741044,108,135,171
-0.76936257,0.15586174,2.4917436,101,129,160
-0.7950083,-0.26219082,2.5172038,69,95,127
-0.8095585,-0.6069963,2.5453987,97,116,142
-0.91292536,-0.61387897,2.550397,60,81,109
-1.5720232,0.6249268,2.5130258,103,122,146
-1.175893,-0.53524494,2.556662,51,72,98
-1.3410906,-0.29880905,2.772095,103,120,147
-1.2708316,-0.6104579,2.7726574,92,111,137
-1.2648141,-0.9323664,2.598228,4,17,34
-0.25519544,-0.5903716,2.5160682,75,93,122
-0.42575985,0.89103854,2.4242923,147,173,207
-0.54823226,0.61513376,2.4482558,118,147,188
-0.695375,0.6411829,2.454349,115,142,178
-0.826833,0.5534159,2.4659786,108,135,171
-1.2012357,1.424171,2.4121208,122,141,172
-0.88479376,-0.24106169,2.5281413,56,77,105
-1.0105441,-0.21584094,2.5308144,81,104,129
-0.94275177,-0.66218114,2.5584445,46,67,95
-1.3456501,-0.03296113,2.5421884,140,163,188
-1.4085937,-0.16149366,2.5479164,44,57,75
-1.1720684,-0.773839,2.5677211,48,63,85
-1.2709395,-0.6081469,2.7929568,90,108,135
-1.1913408,-0.80237746,2.896073,115,128,152
-0.30104798,0.45556295,2.4498012,116,141,179
-0.398843,0.23064148,2.466632,96,118,152
-0.5813093,0.85243803,2.4296288,153,176,209
-0.76902187,1.1419369,2.4197876,150,171,202
-0.5828356,-0.5094459,2.5264525,64,85,113
-0.7974707,-0.04212761,2.5085158,75,102,130
-0.8628212,-0.22191799,2.5214195,66,90,119
-0.8193263,-0.6292381,2.552643,89,108,132
-1.3378164,0.36657012,2.508931,84,109,141
-1.3670487,0.121640086,2.5279644,133,155,185
-2.187636,1.4029677,2.491519,118,120,114
-1.1683553,-0.6751745,2.5655942,21,42,69
-1.5386329,0.09213686,3.0394952,181,199,229
-1.4683061,-0.15600443,3.091599,174,185,211
-0.20654348,-0.43749595,2.5046525,99,116,143
-0.30888253,-0.13931322,2.4894948,100,122,154
-0.38576502,-0.2503457,2.497035,64,86,114
-0.47050583,-0.27280402,2.5041044,94,115,144
-0.5127157,-0.5110309,2.5248234,77,95,122
-1.0123968,1.1132278,2.4420204,113,131,160
-0.85582006,0.045218825,2.4965653,73,97,128
-0.7053055,-0.71460986,2.5428,67,88,118
-0.7801478,-0.7299459,2.549321,67,85,113
-1.0624622,-0.31715894,2.5357156,52,73,101
-1.4841619,0.29436815,2.5359285,93,114,144
-0.9863293,-0.83057857,2.5572653,46,65,89
-1.3762501,-0.02869296,3.0305698,118,131,149
-1.1656126,-0.841696,2.5702138,31,47,71
-1.1968492,-0.756526,2.8230658,97,111,137
-0.23193121,-0.41347933,2.5071807,96,117,145
-0.44942975,1.0307534,2.4071212,156,177,214
-0.54474235,0.8043303,2.4298768,145,168,203
-0.6032383,0.45186186,2.4595313,92,119,156
-0.6340883,0.08918321,2.4907255,88,112,146
-0.62232745,-0.3303492,2.516737,63,85,115
-0.6113047,-0.6365421,2.5421915,104,125,153
-1.1295174,0.6970289,2.8047047,174,147,171
-1.1529417,0.43565416,2.786984,182,196,212
-0.8946558,-0.528991,2.545044,47,65,92
-1.6739732,0.8029448,2.4956694,103,122,148
-1.2199725,-0.28150773,2.5484731,41,59,86
-2.6670234,1.8882005,2.5655675,247,252,254
-1.3406767,-0.24262881,2.8541753,100,117,144
-1.2422234,-0.7247124,2.5686204,9,27,50
-1.6436372,-0.022282362,3.0344255,134,172,226
-0.3236912,0.77872866,2.423718,129,155,195
-0.28705233,-0.46390247,2.5108056,55,75,106
-0.43784428,0.011253834,2.485733,91,114,147
-0.6641345,0.6339356,2.4497736,111,137,171
-0.7775612,0.56672263,2.462827,92,119,155
-0.74745035,0.028020144,2.4965763,69,92,125
-1.0462569,0.6134807,2.7910368,224,155,183
-1.1640836,0.59310985,2.8223403,207,143,175
-1.2979891,0.57052255,2.8339589,178,144,158
-1.9098144,1.2536057,2.454613,88,101,126
-0.9452528,-0.70729995,2.5540245,39,57,86
-1.3689227,-0.19112098,2.548122,46,61,83
-2.4770994,1.1497893,2.5090637,113,108,105
-1.2783232,-0.66151285,2.5728247,4,22,43
-1.2630401,-0.5414517,2.9712126,213,231,253
-0.29489356,0.09661484,2.4792147,62,85,120
-0.6952518,2.1002576,2.3326507,97,113,138
-0.5912617,0.6933559,2.4402838,99,125,160
-0.5433425,-0.004776001,2.483882,91,112,142
-1.2323438,2.0857651,2.3664703,123,127,121
-0.7570145,0.050513983,2.4897094,53,77,108
-1.6267362,2.0761237,2.4319134,138,138,130
-1.0270733,0.17472935,2.4962697,176,197,223
-0.7971139,-0.5524988,2.5454268,53,72,98
-1.4457502,0.4979887,2.5059204,106,127,155
-1.2274537,-0.12662888,2.5277562,56,75,101
-1.215038,-0.3238592,2.5442624,64,83,108
-1.3891673,0.0136038065,2.962576,128,143,167
-1.1771574,-0.6792669,2.563919,26,45,71
-1.2668947,-0.69671893,2.5732708,115,127,151
-1.214192,-0.74893904,2.7953534,96,110,136
-0.48547179,1.1273962,2.4158635,139,162,201
-0.7384517,1.7461128,2.3735058,110,129,154
-0.928884,1.8351653,2.3637366,99,120,147
-0.45747447,-0.47954702,2.5171037,66,82,107
-0.6676811,-0.072387576,2.4986482,76,98,130
-1.5171232,1.9299077,2.4059522,127,134,126
-0.8906002,-0.01791048,2.504039,73,97,128
-1.8877645,1.8533772,2.463347,157,156,153
-1.7836118,1.2144897,2.4551198,82,97,121
-2.0703452,1.401303,2.4740477,148,150,138
-2.0113072,0.9880962,2.479947,89,103,129
-1.0814807,-0.59251976,2.5553482,37,58,85
-1.5345753,0.13455534,3.008655,174,192,221
-1.3181313,-0.3093109,2.9706283,102,117,141
-1.301207,-0.71649575,2.607421,3,12,28
-0.5415033,1.5461133,2.3767738,108,126,153
-0.32523602,-0.27299,2.4971728,71,91,123
-0.49786657,0.11688042,2.474802,88,110,142
-0.9506719,1.3534921,2.4055853,96,115,140
-0.70028335,0.13341522,2.4852836,88,111,144
-0.6103818,-0.3772192,2.5207105,75,97,129
-1.0304273,0.40221727,2.482009,89,102,125
-1.8317966,1.8061116,2.4601002,171,167,159
-0.7403554,-0.641973,2.5491974,50,66,96
-1.9888928,1.3252051,2.459856,193,194,198
-1.6131529,0.4538523,2.5260186,85,104,130
-1.8539948,0.5826211,2.5304039,88,105,130
-2.5101144,1.227181,2.527206,163,157,148
-1.1046046,-0.7300129,2.5615864,76,90,116
-1.1134088,-0.8433733,2.542356,40,56,81
-1.2650185,-0.5410285,2.9441597,217,233,251
-0.376786,0.3252766,2.4575384,100,127,164
-0.8003737,1.6648675,2.3790364,110,131,161
-0.80165625,1.0661274,2.429377,124,146,178
-0.86661637,0.8157436,2.4455354,95,121,155
-1.2632856,1.4994122,2.401382,111,131,163
-0.5873125,-0.50578594,2.5251572,51,69,98
-0.7317697,-0.37701797,2.5254292,61,82,111
-0.89499485,-0.2485776,2.523242,86,105,130
-1.0990613,-0.083058834,2.524796,75,98,132
-2.41243,1.7832234,2.5313025,159,153,147
-1.2672007,-0.18680716,2.53839,25,44,69
-1.1183081,-0.5340216,2.5520582,53,70,96
-1.2685359,-0.47578096,2.553981,27,45,68
-1.3223691,-0.31000137,2.912002,99,113,139
-1.4432342,-0.17990696,3.093539,165,172,199
-0.49504066,1.2246692,2.3948412,131,154,189
-0.43253648,0.3791461,2.45272,140,162,194
-0.4443661,0.058225393,2.4773912,69,92,126
-0.48094887,-0.105697274,2.4932923,88,110,143
-0.5384917,-0.1775006,2.499362,86,108,141
-0.601744,-0.22754705,2.5103478,66,90,121
-0.63065314,-0.3545847,2.5155435,67,88,118
-1.8117037,1.8773826,2.4513958,106,115,105
-1.6979523,1.283125,2.4373307,97,112,134
-1.2460303,0.22963977,2.505047,159,184,215
-1.5089799,0.44001317,2.5130806,83,103,131
-1.722853,0.5346633,2.5183296,77,93,117
-2.0035243,0.6937903,2.5292177,115,130,153
-1.0756791,-0.62020993,2.553262,47,66,91
-1.3429992,-0.12272775,3.0603688,151,161,178
-1.3148715,-0.36125278,2.9033403,102,115,140
-1.2674311,-0.5806768,2.8231668,191,215,246
-0.4771844,0.73839796,2.4344902,119,148,189
-0.2976241,-0.36196327,2.498242,80,101,131
-0.697171,0.71656656,2.4437046,125,151,188
-0.58260924,0.053410172,2.488597,74,94,126
-0.54259723,-0.27989674,2.5092702,61,82,112
-0.5598891,-0.42052364,2.5221708,69,90,120
-0.6047663,-0.4841118,2.5277896,49,67,96
-2.134282,2.202531,2.5100577,166,160,155
-2.0309503,1.6357207,2.4752805,172,166,159
-0.82081115,-0.5222318,2.5403395,114,133,160
-1.1465175,-0.18483484,2.532573,100,119,145
-1.3244591,-0.10149956,2.532714,38,56,75
-1.4262961,-0.053911805,2.6767266,8,29,57
-2.8143928,1.287445,2.566603,233,250,249
-1.073127,-0.7582402,2.5524752,44,62,85
-1.2111802,-0.7403064,2.5548925,33,46,69
-0.2255789,-0.28052807,2.4885566,71,89,120
-0.29335368,-0.26687527,2.4939911,84,103,134
-0.66397417,0.7391765,2.436517,142,166,203
-0.40574288,-0.31891823,2.5056927,98,115,142
-0.71198446,0.2943853,2.471846,83,109,143
-1.5462354,1.9939457,2.4158216,163,163,160
-0.686649,-0.17859077,2.5057225,77,99,131
-0.9324354,0.12144995,2.4969115,81,104,137
-1.1897664,0.47467327,2.8277209,231,131,158
-1.4193715,0.5413873,2.503501,37,54,74
-0.78603137,-0.5687485,2.5515125,67,84,110
-1.1277475,-0.23004174,2.529539,51,71,98
-1.2981704,-0.15791786,2.5308068,35,52,77
-1.3949519,-0.046610594,2.7963283,79,96,123
-2.9416587,1.3383698,2.5840523,240,250,250
-1.1184065,-0.7022152,2.5543876,55,69,95
-1.4725269,-0.1652894,3.067397,164,174,202
-0.47139925,0.73718774,2.4364662,122,149,187
-1.0849509,2.4960997,2.3768492,160,159,156
-0.7098826,0.79539895,2.4424064,89,114,154
-0.5765421,0.11905241,2.4815764,70,92,124
-0.53082937,-0.20961308,2.5044708,78,101,136
-0.6289574,-0.1667037,2.5058715,57,78,106
-0.8119178,0.025766134,2.4969578,65,88,121
-0.9872118,0.16107559,2.4960508,74,97,130
-1.0508265,0.084367275,2.5096674,106,130,165
-1.307272,0.2968632,2.5094066,89,113,144
-2.4893708,1.7498842,2.540923,147,145,139
-1.0361667,-0.36974096,2.5390759,44,65,93
-1.1321722,-0.3771689,2.5435576,45,66,92
-1.3833561,-0.05974996,2.8476994,87,102,124
-3.063499,1.3496728,2.595172,255,255,255
-1.3811866,-0.45251727,2.5623636,11,20,42
-1.3108666,-0.40970922,2.9206643,96,111,135
-0.62153596,1.174047,2.4038796,118,140,177
-0.43250322,0.14179564,2.4762664,166,188,228
-1.1953948,2.0829365,2.350266,168,173,179
-0.82775056,0.69761276,2.4545603,126,153,190
-0.687464,0.11062932,2.4872198,84,106,138
-0.87058866,0.29288292,2.4801798,102,126,159
-1.0317689,0.39137208,2.485864,88,103,124
-1.0964011,0.29816198,2.492827,52,71,94
-0.9403428,-0.12691855,2.5195596,63,85,115
-1.3632505,0.32632124,2.5094643,171,193,223
-1.9721258,0.93458676,2.4887624,96,109,132
-2.64127,1.5441512,2.554162,254,255,255
-1.0577565,-0.47619843,2.54627,55,74,98
-1.3612269,-0.08242655,2.8897154,106,122,147
-1.6391625,0.13106835,2.990692,199,200,208
-1.1994365,-0.64042234,2.5578551,37,52,76
-0.24213767,-0.10642898,2.4802353,67,88,118
-0.7452246,1.3364998,2.4020672,91,111,143
-0.68089265,0.77140534,2.432387,146,170,209
-0.6573133,0.420303,2.4591482,122,149,186
-0.63472307,0.13337767,2.4824984,73,96,129
-0.7794366,0.2458216,2.4804304,84,107,140
-0.6542186,-0.18586242,2.5088253,56,77,107
-1.648087,1.3557345,2.4304783,94,109,131
-1.7466557,1.2352715,2.4483612,50,65,87
-1.1308095,0.10050285,2.5114317,66,91,128
-1.1728331,0.0005403757,2.5198395,55,80,111
-1.7625971,0.5549823,2.5170467,79,97,119
-1.4581358,0.14676201,2.7672126,87,106,132
-0.95777464,-0.6111913,2.5497048,41,58,85
-1.3549654,-0.23705697,2.7010167,92,108,135
-2.530045,0.61166465,2.5574691,109,118,134
-1.2975026,-0.4714942,2.7518394,108,127,153
-0.25317037,-0.15305138,2.48568,75,95,126
-0.4589678,0.28198314,2.4679422,79,102,137
-0.83092535,1.069195,2.4259424,123,143,174
-1.1134373,1.4588975,2.409792,88,106,135
-1.5301932,2.0518632,2.4102316,165,165,159
-1.8258374,2.281414,2.4727316,252,255,255
-1.751519,1.7720902,2.4314284,150,159,149
-2.0548644,1.9763936,2.4944053,221,247,247
-1.9067643,1.4149153,2.444047,118,114,113
-1.6336877,0.7779539,2.4997559,77,94,118
-2.1537902,1.2289481,2.4672513,152,151,148
-0.89648354,-0.48606157,2.545128,65,83,106
-1.009798,-0.47603893,2.5446632,51,70,96
-1.4174949,-0.18157744,2.542112,100,112,129
-1.3446165,-0.119713426,2.9920104,111,124,149
-1.329065,-0.24682748,2.9889789,100,113,138
-0.53028464,0.88040936,2.4254093,172,195,231
-0.5083465,0.5009892,2.4512591,141,167,202
-0.5698574,0.4160924,2.4577641,80,107,145
-0.7071393,0.5186665,2.4586878,99,124,161
-0.9291097,0.77520424,2.4503431,107,131,166
-1.8579319,2.3671918,2.4994426,143,137,129
-0.7010727,-0.0631448,2.501185,73,95,125
-0.8045472,-0.04072666,2.5038033,52,73,103
-0.96316206,0.05414915,2.505219,84,107,140
-0.87058926,-0.22230911,2.5243664,57,75,104
-0.9605448,-0.23129857,2.5257955,79,98,125
-1.7915454,0.6170018,2.5161257,90,107,132
-1.9691656,0.63034356,2.5270672,97,112,137
-1.031787,-0.48531485,2.5495079,115,132,157
-1.4258289,0.066162705,3.0406103,142,169,213
-1.266402,-0.45821166,2.5526843,28,44,68
-1.3291829,-0.2567978,2.948682,98,112,138
-0.4200762,0.4173571,2.4553294,129,154,193
-0.38090783,0.07085669,2.4763174,74,95,125
-0.41504484,-0.030238748,2.4839368,69,87,120
-0.51110244,0.018815637,2.4883912,70,91,120
-0.6837114,0.20768273,2.4806676,82,105,140
-1.1041483,0.81400657,2.4721456,100,119,145
-1.6653044,1.5401833,2.418333,24,38,57
-0.628909,-0.32580066,2.5202951,64,82,111
-0.89524126,-0.058614373,2.5116987,60,81,111
-1.0483104,0.011693716,2.5187385,66,93,127
-1.303564,0.18641067,2.5193253,137,163,195
-1.2251707,-0.050003648,2.5264974,37,58,84
-1.7397292,0.35777223,2.5281312,22,39,64
-2.7425003,1.1785505,2.5556488,190,212,237
-1.3004559,-0.32193112,2.547114,26,43,68
-1.3513073,-0.07776463,3.0760214,163,181,211
-1.330824,-0.29575324,2.90073,99,113,139
-0.7400985,1.3537956,2.39739,107,127,160
-0.372644,0.054834962,2.4775968,75,93,125
-0.85630953,1.0505183,2.4301627,93,113,146
-0.47796124,-0.027862072,2.4916987,54,70,101
-0.95448124,0.77125406,2.455408,90,114,143
-1.8097,2.1070197,2.461564,163,161,157
-2.1501954,2.3555827,2.5343125,149,148,145
-0.7877301,-0.051012516,2.5064447,52,71,102
-1.0523821,0.18826044,2.5026767,80,102,132
-1.1409839,0.15510416,2.5121944,123,146,178
-1.6506681,0.619061,2.5069232,98,115,142
-0.92529523,-0.35293555,2.5364943,177,194,220
-0.9186245,-0.46297097,2.5345948,59,76,100
-1.209034,-0.27951193,2.5407586,32,51,75
-1.4899546,0.122498155,3.0319252,174,189,219
-1.5759007,0.083832145,3.019097,207,206,213
-1.3219428,-0.33772874,2.8120239,101,118,145
-0.7537869,1.2903731,2.419191,116,137,167
-0.46426296,0.25091147,2.4693565,68,91,124
-1.2189739,1.7629128,2.3759432,91,105,133
-0.92515385,0.8356236,2.4451575,79,102,137
-1.2925832,1.2960737,2.4379535,88,106,135
-1.0089215,0.58009887,2.7625134,227,237,253
-0.8088906,0.062906384,2.4968257,80,102,133
-0.70288235,-0.22577405,2.5166144,70,90,123
-1.4370542,0.60392666,2.49547,64,81,105
-1.3602736,0.33641815,2.5090983,93,115,145
-1.3823221,0.19327033,2.5177207,84,106,136
-0.9972888,-0.34152293,2.5403109,55,72,99
-0.9544723,-0.47586036,2.5507076,43,64,91
-1.3746763,-0.0967772,2.754726,67,85,114
-1.3490902,-0.04720044,3.0618544,167,175,197
-1.3687953,-0.4179833,2.55516,1,13,34
-1.1561896,2.3660703,2.3914745,139,137,131
-0.7242528,0.9244029,2.4324298,111,134,169
-0.5722396,0.3436556,2.4669633,150,175,212
-0.5254167,0.069429755,2.4845207,52,72,101
-0.6493541,0.14745939,2.482417,87,109,141
-1.29798,1.0597997,2.470788,95,113,140
-1.1292192,0.6112151,2.8158906,224,138,170
-0.99325454,0.19608247,2.4938521,86,109,137
-1.9245613,1.213784,2.4542618,66,78,99
-1.3343118,0.3112297,2.5116243,71,93,123
-0.99276876,-0.21613073,2.529295,83,104,132
-2.3502603,0.96943945,2.4934292,88,98,117
-2.229345,0.67797256,2.5350132,102,111,133
-3.4740515,1.5849018,2.6163542,252,253,254
-1.4156663,-0.27422166,2.5483308,9,18,40
-1.3173681,-0.31924272,2.7651353,100,117,144
-0.36604637,0.25415266,2.4723392,81,103,135
-0.8157232,1.1393826,2.4225287,75,95,128
-1.4195348,2.168332,2.4152079,140,126,123
-0.53086305,0.12436128,2.482672,92,114,147
-1.067813,0.93977606,2.4512765,89,111,143
-0.52140915,-0.15919173,2.4977195,57,75,106
-0.5704201,-0.2023369,2.503508,50,71,101
-0.76503086,-0.040716052,2.5058017,71,93,123
-0.8299928,-0.07877803,2.511816,237,255,255
-2.20732,1.428176,2.502141,82,91,81
-2.9244123,2.0158901,2.5915246,254,252,254
-1.0866438,-0.1523025,2.5250103,48,70,101
-3.4263654,1.950755,2.6196907,252,253,254
-1.3913186,0.015056491,2.7607362,38,57,82
-3.4560602,1.4899395,2.6265755,249,252,252
-1.1469384,-0.48606372,2.5506673,76,95,119
-1.3622094,-0.119727015,3.0773413,151,175,220
-1.0994624,2.0449703,2.3383489,74,89,113
-1.3586369,2.2553742,2.4118724,101,89,101
-1.4021198,2.012416,2.3952522,131,140,131
-0.4704749,0.0004631281,2.485767,64,84,117
-0.87078226,0.5506331,2.4670134,93,120,154
-0.97723114,0.54402363,2.4776292,75,94,120
-0.72207785,0.00816083,2.502719,63,85,117
-0.8178979,0.011690736,2.506178,57,80,107
-2.4425948,1.8730241,2.538516,128,128,123
-1.8176157,0.88749135,2.486362,92,109,133
-1.0156105,-0.12854362,2.5221472,61,82,110
-3.2919886,1.9725676,2.6124473,255,253,255
-1.349724,0.030621529,2.6817276,51,62,80
-3.5802963,1.738528,2.639355,253,253,254
-3.531681,1.4589432,2.6493478,235,248,248
-1.1428396,-0.50962543,2.5448585,104,121,147
-0.6981608,1.1598394,2.4128695,66,88,117
-0.91654086,1.394233,2.4109447,117,137,169
-0.5264364,0.36777043,2.4658742,92,117,157
-1.3091893,1.663251,2.395665,89,103,129
-0.64191246,0.27376938,2.4784713,64,89,126
-1.2986436,1.1646502,2.4516134,71,88,117
-0.73983693,0.13818479,2.4904711,70,92,124
